ply
format ascii 1.0
comment OctoMap 3D export - Moose Robot
comment Resolution: 0.100 m
element vertex 1457
property float x
property float y
property float z
property uchar red
property uchar green
property uchar blue
end_header
-3.3475 -20.7167 1.5369 57 197 0
-3.5037 -20.4042 1.3806 50 204 0
-4.4412 -20.7167 2.4744 95 159 0
-4.4412 -20.2480 2.3181 89 165 0
-3.6600 -20.5605 2.4744 95 159 0
-5.6912 -21.4980 2.6306 101 153 0
-5.0662 -21.6542 2.7869 108 146 0
-4.4412 -21.6542 2.7869 108 146 0
-4.4412 -21.4980 2.7869 108 146 0
-4.1287 -21.6542 2.9431 114 140 0
-3.8162 -21.4980 2.9431 114 140 0
-5.3787 -21.3417 2.6306 101 153 0
-4.1287 -21.1855 2.6306 101 153 0
-4.1287 -21.3417 2.7869 108 146 0
-3.9725 -21.1855 3.0994 121 133 0
-3.8162 -21.1855 2.7869 108 146 0
-3.8162 -21.0292 2.6306 101 153 0
-3.5037 -20.8730 2.6306 101 153 0
-3.5037 -21.1855 2.9431 114 140 0
-3.3475 -21.1855 3.0994 121 133 0
-3.6600 -21.0292 2.9431 114 140 0
-3.5037 -21.0292 2.9431 114 140 0
-3.3475 -20.7167 2.9431 114 140 0
-3.1912 -20.8730 1.5369 57 197 0
-3.1912 -20.7167 1.5369 57 197 0
-3.0350 -20.7167 1.5369 57 197 0
-3.0350 -20.5605 1.5369 57 197 0
-2.8787 -20.5605 1.5369 57 197 0
-3.0350 -20.2480 1.3806 50 204 0
-2.8787 -20.2480 1.3806 50 204 0
-2.7225 -20.4042 1.5369 57 197 0
-3.0350 -20.7167 1.6931 63 191 0
-2.5662 -20.2480 1.3806 50 204 0
-2.4100 -20.2480 1.3806 50 204 0
-2.2537 -20.4042 1.6931 63 191 0
-3.1912 -20.5605 2.4744 95 159 0
-3.1912 -20.2480 2.3181 89 165 0
-2.8787 -20.4042 2.4744 95 159 0
-2.2537 -20.4042 2.4744 95 159 0
-1.9412 -20.2480 1.5369 57 197 0
-3.1912 -20.8730 2.6306 101 153 0
-3.1912 -21.0292 2.7869 108 146 0
-3.1912 -20.8730 2.9431 114 140 0
-3.1912 -20.8730 3.0994 121 133 0
-2.8787 -20.7167 2.6306 101 153 0
-2.8787 -20.7167 2.7869 108 146 0
-2.8787 -20.5605 2.7869 108 146 0
-2.7225 -20.5605 2.9431 114 140 0
-2.7225 -20.4042 3.0994 121 133 0
-2.5662 -20.5605 2.6306 101 153 0
-2.5662 -20.2480 2.6306 101 153 0
-2.4100 -20.2480 2.7869 108 146 0
-2.2537 -20.2480 2.7869 108 146 0
-2.5662 -20.5605 2.9431 114 140 0
-2.2537 -20.2480 2.9431 114 140 0
-2.8787 -20.7167 3.2556 127 127 0
-5.5350 -19.9355 2.0056 76 178 0
-5.2225 -19.7792 2.0056 76 178 0
-4.9100 -20.0917 2.0056 76 178 0
-4.5975 -19.9355 2.0056 76 178 0
-4.9100 -19.6230 2.0056 76 178 0
-4.5975 -19.4667 2.0056 76 178 0
-3.5037 -19.6230 1.8494 70 184 0
-3.9725 -19.1542 1.8494 70 184 0
-3.5037 -19.3105 1.8494 70 184 0
-3.6600 -18.9980 1.8494 70 184 0
-3.5037 -18.9980 1.8494 70 184 0
-4.2850 -20.0917 2.0056 76 178 0
-4.1287 -20.0917 2.1619 82 172 0
-4.2850 -19.7792 2.0056 76 178 0
-3.9725 -19.6230 2.0056 76 178 0
-3.8162 -19.9355 2.1619 82 172 0
-4.2850 -19.3105 2.0056 76 178 0
-4.2850 -18.3730 1.3806 50 204 0
-3.8162 -19.9355 3.0994 121 133 0
-3.3475 -19.1542 3.0994 121 133 0
-4.1287 -20.0917 3.2556 127 127 0
-3.9725 -20.0917 3.4119 133 121 0
-3.5037 -19.7792 3.2556 127 127 0
-3.3475 -19.7792 3.2556 127 127 0
-2.5662 -20.0917 1.3806 50 204 0
-2.4100 -19.9355 1.3806 50 204 0
-2.0975 -20.0917 1.3806 50 204 0
-2.0975 -20.0917 1.5369 57 197 0
-2.2537 -19.7792 1.3806 50 204 0
-3.1912 -19.4667 1.8494 70 184 0
-3.1912 -19.3105 1.8494 70 184 0
-2.8787 -19.3105 1.8494 70 184 0
-2.7225 -19.3105 1.8494 70 184 0
-2.5662 -19.1542 1.8494 70 184 0
-2.4100 -19.1542 1.8494 70 184 0
-2.2537 -18.9980 1.8494 70 184 0
-2.0975 -18.9980 1.8494 70 184 0
-3.1912 -19.7792 2.1619 82 172 0
-2.8787 -20.0917 2.3181 89 165 0
-2.5662 -19.7792 2.3181 89 165 0
-2.2537 -19.6230 2.3181 89 165 0
-2.0975 -19.1542 2.0056 76 178 0
-1.9412 -19.9355 1.3806 50 204 0
-1.7850 -20.0917 1.5369 57 197 0
-1.7850 -19.9355 1.5369 57 197 0
-1.4725 -19.9355 1.5369 57 197 0
-1.9412 -19.7792 1.3806 50 204 0
-1.7850 -19.7792 1.3806 50 204 0
-1.7850 -19.6230 1.3806 50 204 0
-1.4725 -19.7792 1.3806 50 204 0
-1.6287 -19.7792 1.5369 57 197 0
-1.4725 -19.7792 1.5369 57 197 0
-1.4725 -19.6230 1.5369 57 197 0
-1.3162 -19.6230 1.3806 50 204 0
-1.3162 -19.7792 1.5369 57 197 0
-1.3162 -19.6230 1.5369 57 197 0
-1.0037 -19.6230 1.3806 50 204 0
-0.8475 -19.6230 1.5369 57 197 0
-1.1600 -19.4667 1.3806 50 204 0
-1.0037 -19.4667 1.3806 50 204 0
-1.9412 -20.0917 2.4744 95 159 0
-1.9412 -19.9355 2.4744 95 159 0
-1.4725 -19.7792 2.3181 89 165 0
-1.6287 -19.6230 2.3181 89 165 0
-1.6287 -19.7792 2.4744 95 159 0
-1.1600 -19.6230 2.3181 89 165 0
-1.9412 -19.1542 2.0056 76 178 0
-1.0037 -19.1542 2.1619 82 172 0
-1.1600 -19.4667 2.4744 95 159 0
-0.8475 -19.3105 2.3181 89 165 0
-3.1912 -18.8417 1.8494 70 184 0
-2.8787 -18.6855 1.8494 70 184 0
-2.2537 -18.5292 1.8494 70 184 0
-1.9412 -18.8417 1.8494 70 184 0
-1.9412 -18.3730 1.8494 70 184 0
-1.3162 -18.6855 1.6931 63 191 0
-1.1600 -18.6855 1.6931 63 191 0
-0.8475 -18.5292 1.6931 63 191 0
-1.4725 -18.2167 1.6931 63 191 0
-1.3162 -18.0605 1.6931 63 191 0
-0.8475 -18.0605 1.6931 63 191 0
-2.7225 -20.0917 3.0994 121 133 0
-3.0350 -19.6230 2.9431 114 140 0
-2.2537 -20.0917 2.6306 101 153 0
-2.0975 -20.0917 2.7869 108 146 0
-2.4100 -19.7792 3.0994 121 133 0
-2.8787 -19.3105 2.9431 114 140 0
-2.8787 -19.4667 3.0994 121 133 0
-2.7225 -19.4667 3.0994 121 133 0
-2.2537 -19.1542 2.9431 114 140 0
-2.2537 -19.1542 3.0994 121 133 0
-2.0975 -19.6230 3.2556 127 127 0
-1.6287 -19.9355 2.6306 101 153 0
-1.4725 -19.9355 2.7869 108 146 0
-1.4725 -19.7792 2.7869 108 146 0
-1.6287 -20.0917 2.9431 114 140 0
-1.7850 -19.6230 2.9431 114 140 0
-1.3162 -19.7792 2.6306 101 153 0
-1.3162 -19.6230 2.6306 101 153 0
-1.1600 -19.6230 2.6306 101 153 0
-1.4725 -19.4667 2.7869 108 146 0
-1.4725 -18.9980 3.0994 121 133 0
-1.1600 -19.3105 2.7869 108 146 0
-1.0037 -19.4667 2.6306 101 153 0
-1.1600 -18.9980 2.7869 108 146 0
-1.3162 -19.3105 2.9431 114 140 0
-1.7850 -19.3105 3.2556 127 127 0
-2.7225 -18.8417 2.9431 114 140 0
-2.2537 -18.5292 2.9431 114 140 0
-1.7850 -18.8417 2.7869 108 146 0
-1.9412 -18.8417 3.0994 121 133 0
-1.6287 -18.5292 2.9431 114 140 0
-1.1600 -18.5292 2.7869 108 146 0
-1.1600 -18.6855 3.0994 121 133 0
-0.8475 -18.3730 2.9431 114 140 0
-1.7850 -18.2167 2.7869 108 146 0
-1.6287 -18.2167 2.6306 101 153 0
-1.1600 -18.0605 2.6306 101 153 0
-1.1600 -17.9042 2.7869 108 146 0
-0.8475 -17.7480 2.6306 101 153 0
-0.3787 -26.4980 -1.2756 0 197 57
-0.2225 -26.4980 -1.2756 0 197 57
1.1838 -26.4980 -1.2756 0 197 57
1.3400 -26.4980 -1.2756 0 197 57
-0.2225 -26.3417 -1.2756 0 197 57
-0.3787 -26.1855 -1.2756 0 197 57
-0.5350 -26.0292 -1.4319 0 191 63
-0.3787 -26.0292 -1.4319 0 191 63
-0.2225 -26.0292 -1.4319 0 191 63
-0.2225 -25.8730 -1.2756 0 197 57
0.0900 -26.3417 -1.2756 0 197 57
-0.0662 -26.1855 -1.2756 0 197 57
0.0900 -26.1855 -1.2756 0 197 57
0.2463 -26.3417 -1.2756 0 197 57
0.2463 -26.1855 -1.2756 0 197 57
-0.0662 -25.8730 -1.2756 0 197 57
0.0900 -25.8730 -1.2756 0 197 57
0.4025 -25.8730 -1.2756 0 197 57
-0.6912 -25.7167 -1.4319 0 191 63
-0.5350 -25.7167 -1.4319 0 191 63
-0.5350 -25.5605 -1.4319 0 191 63
-0.5350 -25.5605 -1.2756 0 197 57
-0.3787 -25.7167 -1.4319 0 191 63
-0.2225 -25.7167 -1.4319 0 191 63
-0.3787 -25.5605 -1.4319 0 191 63
-0.6912 -25.4042 -1.4319 0 191 63
-0.6912 -25.2480 -1.4319 0 191 63
-0.5350 -25.2480 -1.4319 0 191 63
-0.6912 -25.2480 -1.2756 0 197 57
-0.5350 -25.2480 -1.2756 0 197 57
-0.3787 -25.4042 -1.4319 0 191 63
-0.2225 -25.4042 -1.4319 0 191 63
-0.3787 -25.2480 -1.2756 0 197 57
0.0900 -25.5605 -1.4319 0 191 63
-0.0662 -25.5605 -1.2756 0 197 57
0.2463 -25.5605 -1.4319 0 191 63
0.4025 -25.5605 -1.4319 0 191 63
-0.0662 -25.4042 -1.4319 0 191 63
0.0900 -25.4042 -1.4319 0 191 63
-0.0662 -25.4042 -1.2756 0 197 57
0.0900 -25.4042 -1.2756 0 197 57
0.2463 -25.4042 -1.2756 0 197 57
0.8713 -26.3417 -1.2756 0 197 57
1.0275 -26.3417 -1.2756 0 197 57
0.7150 -26.0292 -1.2756 0 197 57
0.5588 -25.8730 -1.2756 0 197 57
0.7150 -25.8730 -1.2756 0 197 57
0.8713 -26.0292 -1.2756 0 197 57
1.0275 -26.0292 -1.2756 0 197 57
0.8713 -25.8730 -1.2756 0 197 57
1.1838 -26.3417 -1.2756 0 197 57
0.5588 -25.5605 -1.4319 0 191 63
0.5588 -25.5605 -1.2756 0 197 57
0.7150 -25.5605 -1.2756 0 197 57
-0.5350 -22.1230 -1.2756 0 197 57
-0.5350 -21.9667 -1.2756 0 197 57
-0.3787 -21.8105 -1.2756 0 197 57
-0.2225 -21.6542 -1.2756 0 197 57
-0.2225 -21.4980 -1.2756 0 197 57
1.4963 -21.9667 -1.2756 0 197 57
1.4963 -21.8105 -1.2756 0 197 57
1.4963 -21.6542 -1.2756 0 197 57
-0.6912 -21.0292 -1.4319 0 191 63
-0.6912 -20.8730 -1.4319 0 191 63
-0.2225 -20.5605 -1.5881 0 184 70
-0.3787 -20.7167 -1.4319 0 191 63
-0.0662 -20.2480 -1.5881 0 184 70
0.7150 -21.3417 -1.4319 0 191 63
0.8713 -21.1855 -1.4319 0 191 63
0.8713 -20.8730 -1.4319 0 191 63
1.1838 -20.7167 -1.4319 0 191 63
1.3400 -20.5605 -1.4319 0 191 63
1.3400 -20.4042 -1.4319 0 191 63
1.9650 -22.2792 -1.2756 0 197 57
2.1213 -22.1230 -1.2756 0 197 57
2.2775 -21.8105 -1.2756 0 197 57
2.2775 -21.6542 -1.2756 0 197 57
2.4338 -21.4980 -1.2756 0 197 57
3.5275 -22.1230 -1.2756 0 197 57
3.5275 -21.9667 -1.2756 0 197 57
3.8400 -21.6542 -1.2756 0 197 57
3.8400 -21.4980 -1.2756 0 197 57
2.5900 -21.3417 -1.2756 0 197 57
2.7463 -21.0292 -1.2756 0 197 57
2.7463 -20.8730 -1.2756 0 197 57
3.5275 -21.0292 -1.4319 0 191 63
3.8400 -21.3417 -1.2756 0 197 57
3.6838 -20.8730 -1.4319 0 191 63
3.0588 -20.5605 -1.4319 0 191 63
3.0588 -20.4042 -1.4319 0 191 63
3.2150 -20.2480 -1.4319 0 191 63
3.6838 -20.5605 -1.4319 0 191 63
3.9963 -20.2480 -1.4319 0 191 63
-0.6912 -20.0917 -1.4319 0 191 63
-0.6912 -19.9355 -1.4319 0 191 63
-0.5350 -19.9355 -1.4319 0 191 63
-0.5350 -19.9355 -1.2756 0 197 57
-0.3787 -20.0917 -1.4319 0 191 63
-0.3787 -19.9355 -1.2756 0 197 57
-0.5350 -19.6230 -1.2756 0 197 57
0.0900 -20.0917 -1.5881 0 184 70
0.2463 -19.9355 -1.5881 0 184 70
0.4025 -19.7792 -1.5881 0 184 70
0.4025 -19.6230 -1.5881 0 184 70
0.2463 -19.9355 -1.2756 0 197 57
-0.5350 -18.9980 -1.5881 0 184 70
-0.6912 -19.3105 -1.4319 0 191 63
-0.3787 -19.1542 -1.4319 0 191 63
-0.0662 -18.9980 -1.4319 0 191 63
0.7150 -19.6230 -1.2756 0 197 57
1.6525 -20.0917 -1.5881 0 184 70
0.5588 -19.4667 -1.5881 0 184 70
1.0275 -18.9980 -1.7444 0 178 76
0.8713 -19.1542 -1.5881 0 184 70
-0.6912 -18.8417 -1.5881 0 184 70
-0.5350 -18.8417 -1.5881 0 184 70
-0.5350 -18.6855 -1.5881 0 184 70
-0.3787 -18.6855 -1.7444 0 178 76
-0.3787 -18.6855 -1.5881 0 184 70
-0.2225 -18.5292 -1.7444 0 178 76
-0.2225 -18.5292 -1.5881 0 184 70
-0.0662 -18.3730 -1.7444 0 178 76
-0.0662 -18.5292 -1.5881 0 184 70
0.2463 -18.3730 -1.5881 0 184 70
0.4025 -18.3730 -1.5881 0 184 70
-0.0662 -18.2167 -1.7444 0 178 76
0.4025 -17.9042 -1.7444 0 178 76
1.1838 -18.8417 -1.7444 0 178 76
1.3400 -18.5292 -1.7444 0 178 76
1.3400 -18.3730 -1.7444 0 178 76
1.4963 -18.8417 -1.4319 0 191 63
1.6525 -18.6855 -1.4319 0 191 63
0.7150 -18.0605 -1.5881 0 184 70
1.0275 -18.0605 -1.5881 0 184 70
0.5588 -17.7480 -1.7444 0 178 76
1.4963 -18.2167 -1.7444 0 178 76
1.6525 -17.9042 -1.5881 0 184 70
1.8088 -19.9355 -1.5881 0 184 70
1.9650 -19.7792 -1.5881 0 184 70
1.9650 -19.4667 -1.5881 0 184 70
2.1213 -19.3105 -1.5881 0 184 70
1.9650 -18.9980 -1.2756 0 197 57
2.4338 -18.9980 -1.5881 0 184 70
3.5275 -19.9355 -1.4319 0 191 63
3.5275 -19.7792 -1.4319 0 191 63
3.9963 -20.0917 -1.4319 0 191 63
4.1525 -19.9355 -1.4319 0 191 63
3.5275 -19.4667 -1.5881 0 184 70
3.6838 -19.3105 -1.5881 0 184 70
3.6838 -18.9980 -1.5881 0 184 70
2.1213 -18.6855 -1.4319 0 191 63
2.4338 -18.8417 -1.7444 0 178 76
2.5900 -18.5292 -1.7444 0 178 76
2.7463 -18.3730 -1.7444 0 178 76
2.9025 -18.3730 -1.4319 0 191 63
1.8088 -17.9042 -1.7444 0 178 76
1.9650 -18.0605 -1.4319 0 191 63
2.7463 -18.2167 -1.7444 0 178 76
2.9025 -17.9042 -1.7444 0 178 76
2.4338 -17.9042 -1.4319 0 191 63
2.9025 -17.7480 -1.4319 0 191 63
3.0588 -18.6855 -1.2756 0 197 57
3.9963 -18.6855 -1.5881 0 184 70
3.9963 -18.5292 -1.5881 0 184 70
4.1525 -18.6855 -1.2756 0 197 57
3.8400 -18.5292 -1.2756 0 197 57
4.1525 -18.3730 -1.2756 0 197 57
3.0588 -18.2167 -1.4319 0 191 63
3.5275 -17.9042 -1.4319 0 191 63
4.1525 -18.2167 -1.7444 0 178 76
4.1525 -18.0605 -1.7444 0 178 76
4.1525 -17.7480 -1.7444 0 178 76
3.6838 -17.7480 -1.4319 0 191 63
3.9963 -17.7480 -1.4319 0 191 63
4.9338 -21.4980 -1.2756 0 197 57
5.0900 -21.1855 -1.2756 0 197 57
5.0900 -21.0292 -1.2756 0 197 57
5.0900 -20.8730 -1.2756 0 197 57
5.0900 -20.7167 -1.4319 0 191 63
5.0900 -20.4042 -1.4319 0 191 63
5.0900 -20.2480 -1.4319 0 191 63
5.8713 -20.8730 -1.2756 0 197 57
6.6525 -20.8730 -1.2756 0 197 57
5.8713 -20.7167 -1.2756 0 197 57
5.8713 -20.4042 -1.2756 0 197 57
6.6525 -20.5605 -1.2756 0 197 57
6.8088 -20.2480 -1.2756 0 197 57
8.3713 -20.2480 -1.2756 0 197 57
4.3088 -19.6230 -1.5881 0 184 70
5.4025 -19.9355 -1.4319 0 191 63
5.4025 -19.7792 -1.4319 0 191 63
4.4650 -19.3105 -1.5881 0 184 70
4.4650 -19.1542 -1.5881 0 184 70
5.4025 -19.4667 -1.5881 0 184 70
6.4963 -20.0917 -1.4319 0 191 63
6.6525 -19.9355 -1.2756 0 197 57
6.4963 -19.7792 -1.4319 0 191 63
6.4963 -19.6230 -1.4319 0 191 63
5.5588 -19.1542 -1.5881 0 184 70
5.5588 -18.9980 -1.5881 0 184 70
6.6525 -18.9980 -1.5881 0 184 70
6.6525 -19.3105 -1.4319 0 191 63
4.4650 -18.8417 -1.5881 0 184 70
4.4650 -18.6855 -1.5881 0 184 70
4.7775 -18.3730 -1.7444 0 178 76
4.7775 -18.5292 -1.2756 0 197 57
5.2463 -18.3730 -1.2756 0 197 57
4.7775 -18.0605 -1.7444 0 178 76
4.7775 -17.9042 -1.7444 0 178 76
4.4650 -18.2167 -1.2756 0 197 57
4.7775 -18.2167 -1.2756 0 197 57
4.9338 -18.2167 -1.2756 0 197 57
5.2463 -18.0605 -1.2756 0 197 57
5.4025 -18.0605 -1.2756 0 197 57
5.0900 -17.7480 -1.4319 0 191 63
5.4025 -17.7480 -1.4319 0 191 63
5.5588 -18.6855 -1.5881 0 184 70
5.7150 -18.5292 -1.5881 0 184 70
6.6525 -18.8417 -1.5881 0 184 70
5.7150 -18.2167 -1.7444 0 178 76
5.7150 -17.9042 -1.7444 0 178 76
5.7150 -17.7480 -1.7444 0 178 76
5.8713 -18.2167 -1.2756 0 197 57
5.7150 -17.7480 -1.4319 0 191 63
5.7150 -17.9042 -1.2756 0 197 57
5.8713 -17.9042 -1.2756 0 197 57
6.6525 -18.0605 -1.5881 0 184 70
6.4963 -17.7480 -1.7444 0 178 76
6.1838 -18.0605 -1.2756 0 197 57
6.4963 -18.0605 -1.2756 0 197 57
6.6525 -18.0605 -1.2756 0 197 57
6.1838 -17.9042 -1.2756 0 197 57
6.3400 -17.9042 -1.2756 0 197 57
6.6525 -17.7480 -1.2756 0 197 57
6.8088 -20.0917 -1.2756 0 197 57
7.2775 -19.6230 -1.4319 0 191 63
7.2775 -19.3105 -1.4319 0 191 63
7.2775 -19.1542 -1.4319 0 191 63
7.7463 -19.1542 -1.4319 0 191 63
8.3713 -19.9355 -1.2756 0 197 57
8.2150 -19.7792 -1.2756 0 197 57
8.8400 -19.7792 -1.2756 0 197 57
8.2150 -19.4667 -1.2756 0 197 57
8.5275 -19.3105 -1.2756 0 197 57
8.5275 -19.1542 -1.2756 0 197 57
8.3713 -18.9980 -1.2756 0 197 57
8.8400 -19.4667 -1.2756 0 197 57
6.8088 -18.3730 -1.5881 0 184 70
7.2775 -18.3730 -1.5881 0 184 70
7.4338 -18.5292 -1.5881 0 184 70
7.4338 -18.8417 -1.4319 0 191 63
6.8088 -18.2167 -1.5881 0 184 70
7.2775 -18.0605 -1.5881 0 184 70
6.9650 -17.7480 -1.5881 0 184 70
7.1213 -17.9042 -1.5881 0 184 70
6.9650 -17.9042 -1.2756 0 197 57
6.9650 -17.7480 -1.2756 0 197 57
7.1213 -17.9042 -1.2756 0 197 57
7.1213 -17.7480 -1.2756 0 197 57
7.9025 -18.2167 -1.5881 0 184 70
7.9025 -18.0605 -1.5881 0 184 70
7.5900 -17.7480 -1.5881 0 184 70
7.7463 -17.9042 -1.5881 0 184 70
7.9025 -18.0605 -1.2756 0 197 57
7.4338 -17.9042 -1.2756 0 197 57
7.7463 -17.9042 -1.2756 0 197 57
8.2150 -18.6855 -1.5881 0 184 70
8.0588 -18.5292 -1.5881 0 184 70
8.2150 -18.8417 -1.2756 0 197 57
8.3713 -18.8417 -1.4319 0 191 63
8.5275 -18.3730 -1.4319 0 191 63
9.1525 -18.8417 -1.2756 0 197 57
8.9963 -18.6855 -1.2756 0 197 57
9.1525 -18.6855 -1.2756 0 197 57
8.6838 -18.5292 -1.2756 0 197 57
8.8400 -18.5292 -1.2756 0 197 57
8.0588 -18.0605 -1.2756 0 197 57
8.2150 -18.0605 -1.2756 0 197 57
8.3713 -18.0605 -1.4319 0 191 63
8.3713 -18.0605 -1.2756 0 197 57
8.5275 -18.0605 -1.2756 0 197 57
8.2150 -17.9042 -1.2756 0 197 57
8.5275 -17.9042 -1.2756 0 197 57
8.6838 -18.0605 -1.4319 0 191 63
8.8400 -18.2167 -1.2756 0 197 57
8.6838 -18.0605 -1.2756 0 197 57
8.8400 -18.0605 -1.2756 0 197 57
9.1525 -18.2167 -1.2756 0 197 57
8.9963 -18.0605 -1.2756 0 197 57
9.1525 -18.0605 -1.2756 0 197 57
8.8400 -17.9042 -1.2756 0 197 57
-0.2225 -26.9667 -0.6506 0 223 31
-0.5350 -26.4980 -0.8069 0 216 38
-0.0662 -26.9667 -0.6506 0 223 31
0.0900 -26.8105 -0.6506 0 223 31
-0.3787 -27.4355 -0.4944 0 229 25
-0.5350 -27.2792 -0.4944 0 229 25
-0.0662 -27.4355 -0.4944 0 229 25
0.2463 -27.5917 -0.4944 0 229 25
0.2463 -27.2792 -0.4944 0 229 25
0.4025 -27.1230 -0.4944 0 229 25
1.1838 -26.4980 -1.1194 0 204 50
1.3400 -26.6542 -0.8069 0 216 38
1.4963 -26.4980 -0.8069 0 216 38
1.6525 -26.4980 -0.8069 0 216 38
1.1838 -27.4355 -0.3381 0 235 19
1.4963 -26.8105 -0.4944 0 229 25
1.3400 -26.4980 -0.4944 0 229 25
-0.2225 -25.8730 -0.8069 0 216 38
0.2463 -26.1855 -0.8069 0 216 38
0.4025 -26.0292 -0.8069 0 216 38
-0.6912 -25.5605 -1.1194 0 204 50
-0.5350 -25.5605 -1.1194 0 204 50
-0.6912 -25.7167 -0.9631 0 210 44
-0.5350 -25.7167 -0.9631 0 210 44
-0.3787 -25.7167 -1.1194 0 204 50
-0.2225 -25.7167 -1.1194 0 204 50
-0.3787 -25.5605 -1.1194 0 204 50
-0.3787 -25.5605 -0.9631 0 210 44
-0.2225 -25.5605 -0.9631 0 210 44
-0.2225 -25.4042 -1.1194 0 204 50
-0.0662 -25.5605 -1.1194 0 204 50
0.0900 -25.5605 -1.1194 0 204 50
0.0900 -25.7167 -0.9631 0 210 44
0.2463 -25.5605 -1.1194 0 204 50
0.4025 -25.5605 -1.1194 0 204 50
0.2463 -25.5605 -0.9631 0 210 44
0.4025 -25.5605 -0.9631 0 210 44
-0.0662 -25.7167 -0.8069 0 216 38
0.0900 -25.5605 -0.8069 0 216 38
0.2463 -25.4042 -0.8069 0 216 38
0.7150 -26.0292 -0.9631 0 210 44
1.0275 -26.0292 -1.1194 0 204 50
1.0275 -25.8730 -1.1194 0 204 50
0.8713 -25.8730 -0.9631 0 210 44
1.0275 -25.8730 -0.9631 0 210 44
1.0275 -26.1855 -0.6506 0 223 31
0.5588 -26.0292 -0.8069 0 216 38
1.0275 -26.0292 -0.8069 0 216 38
0.8713 -25.8730 -0.6506 0 223 31
1.3400 -26.3417 -1.1194 0 204 50
1.1838 -26.1855 -1.1194 0 204 50
1.3400 -26.1855 -1.1194 0 204 50
1.4963 -26.3417 -1.1194 0 204 50
1.6525 -26.3417 -1.1194 0 204 50
1.4963 -26.1855 -1.1194 0 204 50
1.1838 -26.0292 -1.1194 0 204 50
1.3400 -25.8730 -1.1194 0 204 50
1.6525 -25.8730 -1.1194 0 204 50
1.4963 -25.8730 -0.9631 0 210 44
1.1838 -26.0292 -0.6506 0 223 31
1.6525 -25.8730 -0.6506 0 223 31
0.5588 -25.7167 -1.1194 0 204 50
0.7150 -25.7167 -1.1194 0 204 50
0.5588 -25.5605 -1.1194 0 204 50
0.7150 -25.5605 -1.1194 0 204 50
0.5588 -25.5605 -0.9631 0 210 44
0.8713 -25.7167 -1.1194 0 204 50
1.0275 -25.7167 -1.1194 0 204 50
0.8713 -25.5605 -1.1194 0 204 50
1.0275 -25.5605 -1.1194 0 204 50
0.8713 -25.7167 -0.9631 0 210 44
1.0275 -25.5605 -0.9631 0 210 44
0.8713 -25.4042 -1.1194 0 204 50
1.0275 -25.7167 -0.6506 0 223 31
0.5588 -25.2480 -0.8069 0 216 38
1.1838 -25.7167 -1.1194 0 204 50
1.3400 -25.7167 -1.1194 0 204 50
1.1838 -25.5605 -1.1194 0 204 50
1.3400 -25.5605 -1.1194 0 204 50
1.1838 -25.5605 -0.9631 0 210 44
1.4963 -25.7167 -1.1194 0 204 50
1.6525 -25.7167 -1.1194 0 204 50
1.4963 -25.5605 -1.1194 0 204 50
1.4963 -25.7167 -0.9631 0 210 44
1.6525 -25.7167 -0.9631 0 210 44
1.3400 -25.5605 -0.6506 0 223 31
1.4963 -25.4042 -0.8069 0 216 38
1.4963 -26.3417 -0.4944 0 229 25
1.6525 -27.2792 0.9119 31 223 0
2.1213 -27.5917 -0.8069 0 216 38
1.8088 -26.4980 -0.8069 0 216 38
2.1213 -26.6542 -0.6506 0 223 31
2.4338 -26.4980 -0.6506 0 223 31
2.5900 -26.4980 -0.6506 0 223 31
2.7463 -26.6542 -0.6506 0 223 31
2.9025 -26.4980 -0.6506 0 223 31
2.5900 -27.5917 -0.3381 0 235 19
2.7463 -27.4355 -0.3381 0 235 19
1.8088 -26.4980 -0.4944 0 229 25
2.9025 -26.4980 -0.4944 0 229 25
3.2150 -27.4355 -0.8069 0 216 38
3.2150 -27.5917 -0.6506 0 223 31
3.3713 -27.5917 -0.6506 0 223 31
3.6838 -27.5917 -0.6506 0 223 31
3.6838 -27.4355 -0.6506 0 223 31
3.8400 -27.4355 -0.6506 0 223 31
3.6838 -27.1230 -0.8069 0 216 38
3.6838 -27.2792 -0.6506 0 223 31
3.0588 -26.4980 -0.6506 0 223 31
3.6838 -27.5917 -0.1819 0 242 12
3.0588 -26.4980 -0.4944 0 229 25
3.2150 -26.4980 -0.4944 0 229 25
3.3713 -26.6542 -0.3381 0 235 19
3.9963 -26.9667 -0.3381 0 235 19
3.9963 -26.4980 -0.4944 0 229 25
2.1213 -26.1855 -0.9631 0 210 44
2.2775 -26.1855 -0.9631 0 210 44
1.8088 -25.8730 -1.1194 0 204 50
1.9650 -25.8730 -1.1194 0 204 50
1.9650 -26.0292 -0.9631 0 210 44
1.9650 -25.8730 -0.9631 0 210 44
2.1213 -26.0292 -1.1194 0 204 50
2.2775 -26.0292 -1.1194 0 204 50
2.2775 -25.8730 -0.9631 0 210 44
1.9650 -26.3417 -0.8069 0 216 38
1.8088 -26.1855 -0.6506 0 223 31
2.2775 -26.3417 -0.8069 0 216 38
1.8088 -25.8730 -0.8069 0 216 38
1.9650 -26.0292 -0.6506 0 223 31
2.4338 -26.3417 -0.9631 0 210 44
2.5900 -26.3417 -0.9631 0 210 44
2.4338 -26.1855 -0.9631 0 210 44
2.7463 -26.1855 -0.9631 0 210 44
2.9025 -26.1855 -0.9631 0 210 44
2.4338 -26.0292 -0.9631 0 210 44
2.5900 -26.0292 -0.9631 0 210 44
2.4338 -25.8730 -0.9631 0 210 44
2.5900 -25.8730 -0.9631 0 210 44
2.7463 -26.0292 -0.9631 0 210 44
2.9025 -26.0292 -0.9631 0 210 44
2.9025 -25.8730 -0.9631 0 210 44
2.4338 -26.3417 -0.8069 0 216 38
2.5900 -26.1855 -0.8069 0 216 38
2.9025 -26.3417 -0.8069 0 216 38
2.7463 -26.1855 -0.8069 0 216 38
2.7463 -26.3417 -0.6506 0 223 31
2.9025 -26.3417 -0.6506 0 223 31
2.9025 -26.0292 -0.8069 0 216 38
2.9025 -25.8730 -0.8069 0 216 38
1.9650 -25.5605 -1.1194 0 204 50
1.8088 -25.7167 -0.9631 0 210 44
1.9650 -25.7167 -0.9631 0 210 44
2.2775 -25.7167 -1.1194 0 204 50
2.1213 -25.7167 -0.9631 0 210 44
2.2775 -25.7167 -0.9631 0 210 44
1.8088 -25.7167 -0.6506 0 223 31
2.1213 -25.5605 -0.6506 0 223 31
1.8088 -25.2480 -0.8069 0 216 38
2.2775 -25.4042 -0.6506 0 223 31
2.4338 -25.7167 -0.9631 0 210 44
2.7463 -25.7167 -0.9631 0 210 44
2.9025 -25.7167 -0.9631 0 210 44
2.7463 -25.7167 -0.6506 0 223 31
2.5900 -25.2480 -0.6506 0 223 31
2.9025 -25.4042 -0.6506 0 223 31
2.1213 -26.3417 -0.4944 0 229 25
2.2775 -26.3417 -0.4944 0 229 25
2.4338 -26.1855 -0.3381 0 235 19
2.5900 -26.1855 -0.3381 0 235 19
2.5900 -26.0292 -0.4944 0 229 25
2.9025 -25.8730 -0.4944 0 229 25
2.7463 -26.0292 -0.3381 0 235 19
2.9025 -26.0292 -0.3381 0 235 19
3.0588 -26.1855 -0.9631 0 210 44
3.0588 -25.8730 -0.9631 0 210 44
3.2150 -25.8730 -0.9631 0 210 44
3.3713 -25.8730 -0.9631 0 210 44
3.5275 -25.8730 -0.9631 0 210 44
3.0588 -26.1855 -0.8069 0 216 38
3.0588 -26.3417 -0.6506 0 223 31
3.2150 -26.3417 -0.6506 0 223 31
3.2150 -26.1855 -0.6506 0 223 31
3.5275 -26.1855 -0.8069 0 216 38
3.5275 -26.3417 -0.6506 0 223 31
3.3713 -26.1855 -0.6506 0 223 31
3.2150 -25.8730 -0.8069 0 216 38
3.3713 -26.0292 -0.8069 0 216 38
3.5275 -26.0292 -0.8069 0 216 38
3.5275 -26.0292 -0.6506 0 223 31
3.6838 -26.0292 -0.9631 0 210 44
3.8400 -26.0292 -0.9631 0 210 44
3.6838 -26.1855 -0.8069 0 216 38
3.8400 -26.1855 -0.8069 0 216 38
3.6838 -26.3417 -0.6506 0 223 31
3.6838 -26.1855 -0.6506 0 223 31
3.8400 -26.1855 -0.6506 0 223 31
3.9963 -26.1855 -0.8069 0 216 38
4.1525 -26.1855 -0.8069 0 216 38
3.9963 -26.1855 -0.6506 0 223 31
4.1525 -26.1855 -0.6506 0 223 31
3.6838 -26.0292 -0.8069 0 216 38
3.8400 -26.0292 -0.8069 0 216 38
3.6838 -26.0292 -0.6506 0 223 31
3.9963 -26.0292 -0.8069 0 216 38
4.1525 -26.0292 -0.8069 0 216 38
3.9963 -26.0292 -0.6506 0 223 31
4.1525 -26.0292 -0.6506 0 223 31
3.2150 -25.7167 -0.9631 0 210 44
3.0588 -25.7167 -0.6506 0 223 31
3.2150 -25.2480 -0.6506 0 223 31
3.2150 -26.3417 -0.4944 0 229 25
3.3713 -26.3417 -0.4944 0 229 25
3.5275 -26.3417 -0.4944 0 229 25
3.5275 -26.1855 -0.4944 0 229 25
3.2150 -26.0292 -0.3381 0 235 19
3.0588 -25.8730 -0.3381 0 235 19
3.2150 -25.8730 -0.3381 0 235 19
3.3713 -25.8730 -0.3381 0 235 19
3.5275 -25.8730 -0.3381 0 235 19
3.6838 -26.3417 -0.4944 0 229 25
3.8400 -26.3417 -0.4944 0 229 25
3.6838 -26.1855 -0.4944 0 229 25
3.8400 -26.1855 -0.4944 0 229 25
3.9963 -26.1855 -0.4944 0 229 25
4.1525 -26.1855 -0.4944 0 229 25
3.9963 -26.0292 -0.4944 0 229 25
4.1525 -26.0292 -0.4944 0 229 25
4.1525 -26.1855 -0.0256 0 248 6
3.5275 -25.7167 -0.3381 0 235 19
3.6838 -25.7167 -0.3381 0 235 19
3.8400 -25.7167 -0.3381 0 235 19
3.8400 -25.5605 -0.3381 0 235 19
3.9963 -25.7167 -0.3381 0 235 19
4.1525 -25.7167 -0.3381 0 235 19
4.1525 -25.5605 -0.3381 0 235 19
1.9650 -27.4355 1.0681 38 216 0
2.1213 -27.4355 1.2244 44 210 0
2.4338 -27.5917 1.2244 44 210 0
2.9025 -27.1230 1.2244 44 210 0
1.9650 -26.8105 0.9119 31 223 0
2.1213 -26.4980 0.7556 25 229 0
2.4338 -26.8105 0.7556 25 229 0
2.4338 -26.4980 0.7556 25 229 0
2.5900 -26.9667 1.2244 44 210 0
3.2150 -26.6542 1.2244 44 210 0
3.2150 -26.4980 1.2244 44 210 0
2.9025 -26.0292 0.5994 19 235 0
2.5900 -26.3417 0.7556 25 229 0
2.9025 -26.0292 0.7556 25 229 0
2.5900 -25.7167 0.7556 25 229 0
2.9025 -25.4042 0.7556 25 229 0
3.5275 -25.5605 0.5994 19 235 0
4.1525 -26.0292 0.7556 25 229 0
3.6838 -26.3417 1.2244 44 210 0
3.8400 -26.1855 1.2244 44 210 0
3.2150 -25.7167 0.7556 25 229 0
-0.6912 -24.7792 -0.9631 0 210 44
-0.5350 -24.6230 -0.9631 0 210 44
-0.2225 -24.6230 -0.9631 0 210 44
-0.6912 -24.3105 -0.9631 0 210 44
-0.2225 -24.4667 -0.9631 0 210 44
-0.5350 -24.1542 -0.9631 0 210 44
-0.5350 -23.9980 -0.9631 0 210 44
-0.0662 -24.3105 -0.9631 0 210 44
0.0900 -24.1542 -0.9631 0 210 44
0.0900 -23.9980 -0.9631 0 210 44
0.7150 -25.0917 -0.9631 0 210 44
1.0275 -25.0917 -0.9631 0 210 44
1.1838 -24.7792 -0.9631 0 210 44
1.3400 -24.6230 -0.9631 0 210 44
1.4963 -24.4667 -0.9631 0 210 44
1.4963 -24.3105 -0.9631 0 210 44
1.4963 -24.1542 -0.9631 0 210 44
1.6525 -23.9980 -0.9631 0 210 44
-0.5350 -23.8417 -0.9631 0 210 44
0.2463 -23.8417 -0.9631 0 210 44
0.4025 -23.6855 -0.9631 0 210 44
0.4025 -23.5292 -0.9631 0 210 44
0.4025 -23.3730 -0.9631 0 210 44
0.0900 -23.3730 -0.0256 0 248 6
0.2463 -23.3730 -0.0256 0 248 6
-0.6912 -22.7480 -0.4944 0 229 25
-0.5350 -22.7480 -0.4944 0 229 25
-0.3787 -22.7480 -0.3381 0 235 19
-0.3787 -23.0605 -0.0256 0 248 6
-0.2225 -22.9042 -0.0256 0 248 6
-0.2225 -22.7480 -0.0256 0 248 6
0.4025 -23.0605 -0.1819 0 242 12
0.2463 -23.2167 -0.0256 0 248 6
1.1838 -23.5292 -1.1194 0 204 50
1.1838 -23.3730 -1.1194 0 204 50
0.5588 -23.2167 -1.1194 0 204 50
0.7150 -23.0605 -1.1194 0 204 50
0.7150 -22.9042 -1.1194 0 204 50
0.8713 -22.7480 -1.1194 0 204 50
1.3400 -23.2167 -1.1194 0 204 50
1.4963 -22.9042 -1.1194 0 204 50
1.4963 -22.7480 -1.1194 0 204 50
0.5588 -23.5292 -0.0256 0 248 6
0.7150 -23.5292 -0.0256 0 248 6
0.7150 -23.3730 -0.0256 0 248 6
0.7150 -23.2167 -0.0256 0 248 6
0.8713 -23.2167 -0.0256 0 248 6
1.0275 -23.0605 -0.0256 0 248 6
0.5588 -22.9042 -0.1819 0 242 12
0.7150 -22.7480 -0.1819 0 242 12
0.5588 -22.9042 -0.0256 0 248 6
1.0275 -22.9042 -0.0256 0 248 6
1.1838 -23.2167 -0.0256 0 248 6
1.3400 -23.0605 -0.0256 0 248 6
1.1838 -22.9042 -0.0256 0 248 6
1.3400 -22.9042 -0.0256 0 248 6
1.1838 -22.7480 -0.0256 0 248 6
1.4963 -22.9042 -0.0256 0 248 6
1.4963 -22.7480 -0.0256 0 248 6
1.6525 -22.7480 -0.0256 0 248 6
-0.3787 -23.9980 0.7556 25 229 0
-0.0662 -23.9980 0.7556 25 229 0
0.2463 -23.9980 0.7556 25 229 0
1.6525 -24.6230 0.9119 31 223 0
0.8713 -24.3105 0.9119 31 223 0
1.3400 -24.3105 0.7556 25 229 0
1.4963 -24.4667 0.9119 31 223 0
1.6525 -24.4667 0.9119 31 223 0
1.4963 -24.3105 0.9119 31 223 0
1.6525 -24.3105 0.9119 31 223 0
-0.5350 -23.8417 0.5994 19 235 0
-0.6912 -23.6855 0.5994 19 235 0
-0.5350 -23.6855 0.5994 19 235 0
-0.2225 -23.8417 0.5994 19 235 0
-0.3787 -23.6855 0.5994 19 235 0
-0.2225 -23.6855 0.5994 19 235 0
-0.6912 -23.5292 0.4431 12 242 0
-0.5350 -23.5292 0.4431 12 242 0
-0.3787 -23.5292 0.5994 19 235 0
-0.5350 -23.8417 0.7556 25 229 0
-0.2225 -23.8417 0.7556 25 229 0
0.0900 -23.8417 0.7556 25 229 0
0.0900 -23.6855 0.7556 25 229 0
0.2463 -23.8417 0.7556 25 229 0
0.4025 -23.8417 0.7556 25 229 0
0.8713 -23.6855 0.1306 0 255 0
1.0275 -23.6855 0.1306 0 255 0
0.8713 -23.5292 0.1306 0 255 0
1.0275 -23.5292 0.1306 0 255 0
1.0275 -23.3730 0.1306 0 255 0
1.1838 -23.6855 0.1306 0 255 0
1.4963 -23.6855 0.1306 0 255 0
1.6525 -23.6855 0.2869 6 248 0
1.1838 -23.5292 0.1306 0 255 0
1.3400 -23.5292 0.1306 0 255 0
1.1838 -23.3730 0.1306 0 255 0
1.3400 -23.3730 0.1306 0 255 0
1.4963 -23.5292 0.1306 0 255 0
1.6525 -23.5292 0.1306 0 255 0
1.4963 -23.3730 0.1306 0 255 0
1.6525 -23.3730 0.1306 0 255 0
1.6525 -23.5292 0.2869 6 248 0
1.6525 -23.3730 0.2869 6 248 0
1.1838 -23.2167 0.1306 0 255 0
1.3400 -23.2167 0.1306 0 255 0
1.3400 -23.0605 0.1306 0 255 0
1.4963 -23.2167 0.1306 0 255 0
1.6525 -23.2167 0.1306 0 255 0
1.4963 -23.0605 0.1306 0 255 0
1.6525 -23.0605 0.1306 0 255 0
1.6525 -22.9042 0.1306 0 255 0
1.4963 -23.2167 0.9119 31 223 0
1.9650 -25.0917 -0.8069 0 216 38
2.2775 -24.9355 -0.8069 0 216 38
2.7463 -25.0917 -0.6506 0 223 31
2.5900 -24.7792 -0.8069 0 216 38
2.5900 -24.6230 -0.8069 0 216 38
2.9025 -24.1542 -0.9631 0 210 44
2.9025 -23.9980 -0.9631 0 210 44
2.7463 -24.3105 -0.8069 0 216 38
3.3713 -25.0917 -0.6506 0 223 31
3.0588 -24.7792 -0.8069 0 216 38
3.3713 -24.6230 -0.8069 0 216 38
3.6838 -24.9355 -0.6506 0 223 31
3.9963 -24.6230 -0.6506 0 223 31
3.5275 -24.4667 -0.8069 0 216 38
3.6838 -24.1542 -0.8069 0 216 38
3.6838 -23.9980 -0.8069 0 216 38
1.8088 -23.8417 -0.9631 0 210 44
2.7463 -23.5292 -1.1194 0 204 50
2.7463 -23.3730 -1.1194 0 204 50
2.9025 -23.2167 -1.1194 0 204 50
1.8088 -22.7480 -0.0256 0 248 6
3.0588 -23.8417 -0.9631 0 210 44
3.2150 -23.6855 -0.9631 0 210 44
3.9963 -23.5292 -0.9631 0 210 44
3.6838 -23.8417 -0.8069 0 216 38
3.8400 -23.6855 -0.8069 0 216 38
3.0588 -23.0605 -1.1194 0 204 50
3.0588 -22.7480 -1.1194 0 204 50
4.1525 -23.2167 -0.9631 0 210 44
4.1525 -23.0605 -0.9631 0 210 44
1.8088 -24.6230 0.9119 31 223 0
1.8088 -24.6230 1.0681 38 216 0
1.9650 -24.6230 1.0681 38 216 0
2.1213 -24.6230 1.0681 38 216 0
2.2775 -24.6230 1.0681 38 216 0
1.8088 -24.3105 0.9119 31 223 0
1.9650 -24.3105 0.9119 31 223 0
1.9650 -24.1542 0.9119 31 223 0
2.1213 -24.1542 0.9119 31 223 0
1.9650 -24.4667 1.0681 38 216 0
1.8088 -24.3105 1.0681 38 216 0
2.1213 -24.4667 1.0681 38 216 0
2.2775 -24.4667 1.0681 38 216 0
2.1213 -24.3105 1.0681 38 216 0
2.2775 -24.3105 1.0681 38 216 0
2.2775 -23.9980 1.0681 38 216 0
2.4338 -24.1542 1.0681 38 216 0
3.2150 -25.0917 0.7556 25 229 0
4.1525 -24.6230 0.7556 25 229 0
3.3713 -23.9980 1.2244 44 210 0
3.5275 -23.9980 1.2244 44 210 0
3.6838 -23.9980 1.2244 44 210 0
4.1525 -23.9980 1.2244 44 210 0
1.8088 -23.5292 0.2869 6 248 0
1.8088 -23.3730 0.2869 6 248 0
2.4338 -23.3730 0.4431 12 242 0
1.8088 -23.2167 0.1306 0 255 0
1.9650 -23.0605 0.1306 0 255 0
1.9650 -23.2167 0.2869 6 248 0
1.9650 -23.0605 0.2869 6 248 0
2.1213 -23.0605 0.2869 6 248 0
1.9650 -22.9042 0.1306 0 255 0
1.8088 -22.7480 0.1306 0 255 0
1.8088 -22.9042 0.2869 6 248 0
1.9650 -22.9042 0.2869 6 248 0
2.1213 -22.9042 0.1306 0 255 0
2.1213 -22.7480 0.1306 0 255 0
2.2775 -22.7480 0.1306 0 255 0
2.2775 -23.2167 0.4431 12 242 0
2.4338 -22.7480 0.1306 0 255 0
2.7463 -22.7480 0.2869 6 248 0
2.5900 -23.2167 0.4431 12 242 0
2.5900 -23.0605 0.4431 12 242 0
2.7463 -23.0605 0.4431 12 242 0
2.9025 -22.9042 0.4431 12 242 0
1.9650 -23.6855 0.9119 31 223 0
2.1213 -23.3730 0.7556 25 229 0
2.1213 -23.5292 0.9119 31 223 0
2.2775 -23.3730 0.9119 31 223 0
2.1213 -23.8417 1.0681 38 216 0
2.1213 -23.5292 1.2244 44 210 0
2.9025 -23.6855 0.9119 31 223 0
2.5900 -23.6855 1.2244 44 210 0
2.4338 -23.3730 1.0681 38 216 0
2.2775 -23.2167 0.7556 25 229 0
2.4338 -23.0605 0.7556 25 229 0
2.7463 -23.0605 0.9119 31 223 0
2.5900 -22.9042 0.7556 25 229 0
2.5900 -22.7480 0.7556 25 229 0
2.7463 -22.7480 0.7556 25 229 0
2.5900 -23.2167 1.0681 38 216 0
2.7463 -23.0605 1.0681 38 216 0
2.7463 -22.9042 1.0681 38 216 0
2.9025 -22.7480 1.0681 38 216 0
3.6838 -22.7480 0.5994 19 235 0
3.8400 -22.7480 0.5994 19 235 0
3.2150 -23.5292 0.7556 25 229 0
3.0588 -23.5292 0.9119 31 223 0
3.3713 -23.3730 0.7556 25 229 0
3.3713 -23.8417 1.0681 38 216 0
3.5275 -23.8417 1.0681 38 216 0
3.5275 -23.6855 1.0681 38 216 0
3.8400 -23.8417 0.9119 31 223 0
3.8400 -23.6855 0.9119 31 223 0
3.8400 -23.5292 0.7556 25 229 0
3.9963 -23.5292 0.7556 25 229 0
3.9963 -23.3730 0.7556 25 229 0
4.1525 -23.3730 0.7556 25 229 0
3.6838 -23.8417 1.0681 38 216 0
3.6838 -23.6855 1.0681 38 216 0
3.8400 -23.8417 1.2244 44 210 0
3.8400 -23.6855 1.2244 44 210 0
3.9963 -23.6855 1.0681 38 216 0
3.6838 -23.5292 1.0681 38 216 0
3.8400 -23.5292 1.0681 38 216 0
3.6838 -23.3730 1.0681 38 216 0
3.8400 -23.3730 1.0681 38 216 0
4.1525 -23.5292 1.0681 38 216 0
3.9963 -23.3730 1.0681 38 216 0
3.9963 -23.3730 1.2244 44 210 0
3.3713 -23.2167 0.7556 25 229 0
3.5275 -23.0605 0.7556 25 229 0
3.6838 -23.0605 0.7556 25 229 0
4.1525 -23.2167 0.7556 25 229 0
4.1525 -23.0605 0.9119 31 223 0
3.6838 -22.9042 0.7556 25 229 0
3.8400 -23.2167 1.0681 38 216 0
3.9963 -23.2167 1.0681 38 216 0
3.9963 -23.0605 1.0681 38 216 0
4.1525 -23.0605 1.0681 38 216 0
1.8088 -27.4355 1.3806 50 204 0
1.8088 -27.4355 1.5369 57 197 0
2.2775 -27.1230 1.3806 50 204 0
2.5900 -27.1230 1.5369 57 197 0
2.5900 -26.9667 1.3806 50 204 0
3.2150 -26.6542 1.6931 63 191 0
3.6838 -26.4980 1.3806 50 204 0
3.9963 -26.3417 1.6931 63 191 0
3.8400 -25.2480 1.6931 63 191 0
3.9963 -25.0917 1.6931 63 191 0
3.9963 -24.4667 1.5369 57 197 0
4.1525 -24.3105 1.5369 57 197 0
3.6838 -24.1542 1.3806 50 204 0
3.8400 -23.9980 1.3806 50 204 0
3.9963 -24.1542 1.3806 50 204 0
3.9963 -23.9980 1.3806 50 204 0
4.1525 -23.9980 1.3806 50 204 0
3.9963 -23.9980 1.5369 57 197 0
4.7775 -27.2792 -0.6506 0 223 31
4.9338 -27.4355 -0.6506 0 223 31
5.0900 -27.4355 -0.6506 0 223 31
4.9338 -27.2792 -0.6506 0 223 31
4.9338 -27.1230 -0.6506 0 223 31
5.0900 -27.1230 -0.6506 0 223 31
4.9338 -26.9667 -0.6506 0 223 31
4.7775 -27.4355 -0.1819 0 242 12
5.0900 -27.5917 -0.4944 0 229 25
4.9338 -27.4355 -0.4944 0 229 25
5.2463 -27.5917 -0.1819 0 242 12
4.9338 -27.2792 -0.1819 0 242 12
6.0275 -27.2792 -0.6506 0 223 31
6.0275 -27.1230 -0.6506 0 223 31
6.1838 -27.2792 -0.6506 0 223 31
6.1838 -27.1230 -0.6506 0 223 31
6.0275 -26.9667 -0.6506 0 223 31
5.7150 -27.4355 -0.0256 0 248 6
6.0275 -27.2792 -0.1819 0 242 12
6.1838 -27.5917 -0.4944 0 229 25
6.3400 -27.5917 -0.4944 0 229 25
6.1838 -27.4355 -0.4944 0 229 25
6.3400 -27.4355 -0.4944 0 229 25
6.1838 -27.1230 -0.1819 0 242 12
6.0275 -26.4980 -0.3381 0 235 19
5.7150 -26.9667 -0.1819 0 242 12
6.4963 -26.4980 -0.1819 0 242 12
4.3088 -26.1855 -0.8069 0 216 38
4.4650 -26.1855 -0.8069 0 216 38
4.3088 -26.1855 -0.6506 0 223 31
4.6213 -26.3417 -0.8069 0 216 38
4.7775 -26.3417 -0.8069 0 216 38
4.6213 -26.1855 -0.8069 0 216 38
4.7775 -26.1855 -0.8069 0 216 38
4.6213 -26.1855 -0.6506 0 223 31
4.3088 -26.0292 -0.8069 0 216 38
4.3088 -26.0292 -0.6506 0 223 31
4.4650 -26.0292 -0.6506 0 223 31
4.6213 -26.0292 -0.8069 0 216 38
4.6213 -26.0292 -0.6506 0 223 31
4.7775 -26.0292 -0.6506 0 223 31
4.7775 -25.8730 -0.6506 0 223 31
4.9338 -26.3417 -0.8069 0 216 38
5.0900 -26.3417 -0.8069 0 216 38
4.9338 -26.1855 -0.8069 0 216 38
5.2463 -26.1855 -0.6506 0 223 31
5.4025 -26.1855 -0.6506 0 223 31
4.9338 -26.0292 -0.8069 0 216 38
4.9338 -26.0292 -0.6506 0 223 31
5.0900 -26.0292 -0.6506 0 223 31
4.9338 -25.8730 -0.6506 0 223 31
5.0900 -25.8730 -0.6506 0 223 31
5.2463 -26.0292 -0.6506 0 223 31
5.4025 -26.0292 -0.6506 0 223 31
5.2463 -25.8730 -0.6506 0 223 31
5.4025 -25.8730 -0.6506 0 223 31
4.7775 -25.2480 -0.6506 0 223 31
4.4650 -26.1855 -0.4944 0 229 25
4.6213 -26.1855 -0.4944 0 229 25
4.7775 -26.1855 -0.4944 0 229 25
4.4650 -26.0292 -0.4944 0 229 25
4.3088 -25.8730 -0.4944 0 229 25
4.6213 -26.0292 -0.4944 0 229 25
4.6213 -25.8730 -0.4944 0 229 25
4.7775 -25.8730 -0.4944 0 229 25
4.3088 -26.1855 -0.0256 0 248 6
4.4650 -26.0292 -0.0256 0 248 6
4.6213 -25.8730 -0.1819 0 242 12
4.7775 -26.0292 -0.0256 0 248 6
4.9338 -26.1855 -0.4944 0 229 25
4.9338 -26.1855 -0.3381 0 235 19
4.9338 -26.0292 -0.4944 0 229 25
5.0900 -26.0292 -0.4944 0 229 25
4.9338 -25.8730 -0.4944 0 229 25
5.0900 -25.8730 -0.4944 0 229 25
5.0900 -26.0292 -0.3381 0 235 19
5.2463 -26.0292 -0.4944 0 229 25
5.4025 -26.0292 -0.4944 0 229 25
5.2463 -25.8730 -0.4944 0 229 25
5.4025 -25.8730 -0.4944 0 229 25
5.4025 -26.1855 -0.1819 0 242 12
5.0900 -25.8730 -0.1819 0 242 12
4.9338 -25.8730 -0.0256 0 248 6
5.4025 -26.0292 -0.1819 0 242 12
4.4650 -25.7167 -0.3381 0 235 19
4.3088 -25.5605 -0.3381 0 235 19
4.4650 -25.5605 -0.3381 0 235 19
4.6213 -25.5605 -0.4944 0 229 25
4.7775 -25.7167 -0.3381 0 235 19
4.6213 -25.5605 -0.3381 0 235 19
4.7775 -25.5605 -0.3381 0 235 19
4.9338 -25.7167 -0.4944 0 229 25
4.9338 -25.5605 -0.4944 0 229 25
4.9338 -25.5605 -0.3381 0 235 19
5.0900 -25.5605 -0.3381 0 235 19
5.2463 -25.7167 -0.4944 0 229 25
5.4025 -25.7167 -0.4944 0 229 25
5.4025 -25.7167 -0.3381 0 235 19
5.2463 -25.5605 -0.3381 0 235 19
5.4025 -25.5605 -0.3381 0 235 19
5.2463 -25.7167 -0.1819 0 242 12
5.4025 -25.5605 -0.1819 0 242 12
5.5588 -26.1855 -0.6506 0 223 31
5.7150 -26.1855 -0.6506 0 223 31
5.8713 -26.1855 -0.6506 0 223 31
5.5588 -26.0292 -0.6506 0 223 31
5.5588 -25.8730 -0.6506 0 223 31
5.7150 -25.8730 -0.6506 0 223 31
5.8713 -26.0292 -0.6506 0 223 31
5.8713 -25.8730 -0.6506 0 223 31
6.0275 -25.8730 -0.6506 0 223 31
6.1838 -26.0292 -0.6506 0 223 31
6.1838 -25.8730 -0.6506 0 223 31
6.3400 -25.8730 -0.6506 0 223 31
6.4963 -25.8730 -0.6506 0 223 31
6.6525 -25.8730 -0.6506 0 223 31
5.7150 -25.7167 -0.6506 0 223 31
6.0275 -25.7167 -0.6506 0 223 31
6.3400 -25.7167 -0.6506 0 223 31
5.7150 -26.0292 -0.4944 0 229 25
5.5588 -25.8730 -0.4944 0 229 25
5.7150 -25.8730 -0.4944 0 229 25
5.8713 -25.8730 -0.4944 0 229 25
6.0275 -25.8730 -0.4944 0 229 25
5.5588 -26.0292 -0.1819 0 242 12
5.7150 -25.8730 -0.1819 0 242 12
5.8713 -25.8730 -0.1819 0 242 12
6.0275 -25.8730 -0.1819 0 242 12
6.0275 -25.8730 -0.0256 0 248 6
6.1838 -25.8730 -0.4944 0 229 25
6.3400 -25.8730 -0.4944 0 229 25
6.6525 -26.0292 -0.4944 0 229 25
6.4963 -25.8730 -0.4944 0 229 25
6.6525 -25.8730 -0.4944 0 229 25
6.4963 -26.0292 -0.3381 0 235 19
6.6525 -26.1855 -0.1819 0 242 12
6.4963 -25.8730 -0.0256 0 248 6
5.5588 -25.7167 -0.4944 0 229 25
5.7150 -25.7167 -0.4944 0 229 25
5.7150 -25.5605 -0.4944 0 229 25
5.5588 -25.5605 -0.3381 0 235 19
5.7150 -25.5605 -0.3381 0 235 19
5.8713 -25.7167 -0.4944 0 229 25
6.0275 -25.7167 -0.4944 0 229 25
5.8713 -25.5605 -0.3381 0 235 19
6.0275 -25.5605 -0.3381 0 235 19
5.5588 -25.2480 -0.4944 0 229 25
6.0275 -25.2480 -0.4944 0 229 25
5.5588 -25.7167 -0.1819 0 242 12
5.5588 -25.5605 -0.1819 0 242 12
5.7150 -25.5605 -0.1819 0 242 12
6.0275 -25.7167 -0.1819 0 242 12
5.8713 -25.5605 -0.1819 0 242 12
6.0275 -25.5605 -0.1819 0 242 12
5.8713 -25.4042 -0.1819 0 242 12
6.0275 -25.4042 -0.1819 0 242 12
6.1838 -25.7167 -0.4944 0 229 25
6.3400 -25.7167 -0.4944 0 229 25
6.4963 -25.7167 -0.4944 0 229 25
6.6525 -25.7167 -0.3381 0 235 19
6.1838 -25.7167 -0.1819 0 242 12
6.3400 -25.5605 -0.1819 0 242 12
6.6525 -25.5605 -0.1819 0 242 12
6.4963 -25.5605 -0.0256 0 248 6
6.1838 -25.4042 -0.1819 0 242 12
6.3400 -25.4042 -0.1819 0 242 12
6.4963 -25.4042 -0.1819 0 242 12
6.6525 -25.4042 -0.1819 0 242 12
6.6525 -25.2480 -0.1819 0 242 12
4.6213 -26.9667 0.5994 19 235 0
4.4650 -25.4042 0.5994 19 235 0
4.3088 -26.3417 1.2244 44 210 0
5.0900 -25.8730 1.2244 44 210 0
4.4650 -25.7167 1.2244 44 210 0
4.9338 -25.7167 1.2244 44 210 0
5.5588 -25.5605 0.4431 12 242 0
5.5588 -25.5605 1.2244 44 210 0
5.5588 -25.2480 1.2244 44 210 0
7.1213 -27.4355 -0.3381 0 235 19
6.9650 -27.1230 -0.4944 0 229 25
6.9650 -27.2792 -0.3381 0 235 19
7.1213 -27.1230 -0.4944 0 229 25
7.1213 -27.2792 -0.3381 0 235 19
6.8088 -27.2792 -0.0256 0 248 6
7.7463 -27.1230 -0.3381 0 235 19
7.4338 -27.4355 -0.0256 0 248 6
7.5900 -27.4355 -0.0256 0 248 6
7.9025 -27.5917 -0.0256 0 248 6
6.8088 -26.9667 -0.4944 0 229 25
6.9650 -26.9667 -0.4944 0 229 25
6.8088 -26.8105 -0.4944 0 229 25
6.8088 -26.6542 -0.4944 0 229 25
7.5900 -26.8105 -0.4944 0 229 25
7.5900 -26.9667 -0.3381 0 235 19
7.7463 -26.9667 -0.4944 0 229 25
7.7463 -26.9667 -0.3381 0 235 19
7.9025 -26.8105 -0.3381 0 235 19
7.4338 -26.6542 -0.4944 0 229 25
7.5900 -26.6542 -0.4944 0 229 25
7.4338 -26.4980 -0.4944 0 229 25
7.5900 -26.4980 -0.3381 0 235 19
7.9025 -26.6542 -0.4944 0 229 25
7.7463 -26.4980 -0.4944 0 229 25
7.9025 -26.4980 -0.4944 0 229 25
7.9025 -26.6542 -0.3381 0 235 19
7.9025 -26.4980 -0.3381 0 235 19
7.7463 -26.8105 -0.0256 0 248 6
7.5900 -26.4980 -0.1819 0 242 12
7.7463 -26.4980 -0.1819 0 242 12
8.0588 -27.2792 -0.0256 0 248 6
8.5275 -27.1230 -0.0256 0 248 6
8.0588 -26.9667 -0.3381 0 235 19
8.0588 -26.8105 -0.3381 0 235 19
8.2150 -26.8105 -0.3381 0 235 19
8.3713 -26.8105 -0.3381 0 235 19
8.0588 -26.6542 -0.3381 0 235 19
8.2150 -26.6542 -0.3381 0 235 19
8.0588 -26.4980 -0.3381 0 235 19
8.2150 -26.4980 -0.3381 0 235 19
8.3713 -26.6542 -0.3381 0 235 19
8.2150 -26.8105 -0.1819 0 242 12
8.0588 -26.8105 -0.0256 0 248 6
8.3713 -26.9667 -0.1819 0 242 12
8.3713 -26.8105 -0.0256 0 248 6
8.0588 -26.6542 -0.0256 0 248 6
8.3713 -26.4980 -0.1819 0 242 12
8.6838 -26.8105 -0.1819 0 242 12
8.8400 -26.6542 -0.1819 0 242 12
7.1213 -26.1855 -0.3381 0 235 19
7.2775 -26.1855 -0.3381 0 235 19
6.8088 -25.8730 -0.4944 0 229 25
6.9650 -26.0292 -0.3381 0 235 19
7.1213 -26.0292 -0.3381 0 235 19
7.2775 -26.0292 -0.3381 0 235 19
7.5900 -26.1855 -0.4944 0 229 25
7.5900 -26.3417 -0.3381 0 235 19
7.5900 -26.1855 -0.3381 0 235 19
7.7463 -26.3417 -0.4944 0 229 25
7.9025 -26.3417 -0.4944 0 229 25
7.5900 -26.3417 -0.1819 0 242 12
7.5900 -26.1855 -0.0256 0 248 6
7.2775 -25.7167 -0.3381 0 235 19
7.1213 -25.5605 -0.3381 0 235 19
6.9650 -25.5605 -0.0256 0 248 6
6.8088 -25.4042 -0.1819 0 242 12
6.9650 -25.4042 -0.1819 0 242 12
6.9650 -25.2480 -0.1819 0 242 12
7.1213 -25.2480 -0.1819 0 242 12
7.2775 -25.2480 -0.1819 0 242 12
7.2775 -25.4042 -0.0256 0 248 6
7.4338 -25.2480 -0.4944 0 229 25
7.5900 -25.4042 -0.3381 0 235 19
7.7463 -25.2480 -0.3381 0 235 19
7.9025 -25.7167 -0.0256 0 248 6
7.4338 -25.2480 -0.1819 0 242 12
7.4338 -25.2480 -0.0256 0 248 6
7.7463 -25.2480 -0.0256 0 248 6
8.0588 -26.3417 -0.3381 0 235 19
8.0588 -26.1855 -0.1819 0 242 12
8.0588 -26.3417 -0.0256 0 248 6
8.2150 -26.1855 -0.0256 0 248 6
8.3713 -26.3417 -0.0256 0 248 6
8.2150 -26.0292 -0.1819 0 242 12
9.1525 -25.8730 -0.1819 0 242 12
9.1525 -25.8730 -0.0256 0 248 6
8.0588 -25.5605 -0.0256 0 248 6
8.5275 -25.5605 -0.0256 0 248 6
8.0588 -25.2480 -0.0256 0 248 6
8.2150 -25.2480 -0.0256 0 248 6
8.6838 -25.7167 -0.3381 0 235 19
8.8400 -25.5605 -0.3381 0 235 19
9.1525 -25.4042 -0.3381 0 235 19
9.1525 -25.2480 -0.3381 0 235 19
8.6838 -25.5605 -0.1819 0 242 12
8.8400 -25.5605 -0.1819 0 242 12
8.6838 -25.7167 -0.0256 0 248 6
8.9963 -25.7167 -0.1819 0 242 12
9.1525 -25.7167 -0.1819 0 242 12
9.1525 -25.5605 -0.1819 0 242 12
9.1525 -25.7167 -0.0256 0 248 6
8.6838 -25.4042 -0.1819 0 242 12
8.8400 -25.4042 -0.1819 0 242 12
8.9963 -25.2480 -0.0256 0 248 6
7.1213 -27.5917 0.2869 6 248 0
7.2775 -27.1230 0.2869 6 248 0
7.1213 -27.5917 0.4431 12 242 0
7.1213 -27.2792 0.4431 12 242 0
7.4338 -27.4355 0.1306 0 255 0
7.7463 -27.5917 0.1306 0 255 0
7.9025 -27.4355 0.4431 12 242 0
7.9025 -26.8105 0.1306 0 255 0
7.4338 -26.6542 0.1306 0 255 0
8.0588 -27.4355 0.1306 0 255 0
8.0588 -27.1230 0.1306 0 255 0
8.2150 -27.4355 0.4431 12 242 0
8.0588 -27.2792 0.4431 12 242 0
8.0588 -27.1230 0.4431 12 242 0
8.3713 -27.1230 0.4431 12 242 0
9.1525 -27.4355 0.1306 0 255 0
8.3713 -26.9667 0.2869 6 248 0
8.2150 -26.6542 0.1306 0 255 0
8.2150 -26.4980 0.2869 6 248 0
8.2150 -26.9667 0.4431 12 242 0
8.0588 -26.8105 0.4431 12 242 0
8.5275 -26.9667 0.4431 12 242 0
8.3713 -26.8105 0.4431 12 242 0
8.5275 -26.8105 0.5994 19 235 0
8.5275 -26.4980 0.4431 12 242 0
8.6838 -26.6542 0.1306 0 255 0
8.6838 -26.4980 0.2869 6 248 0
8.6838 -26.4980 0.4431 12 242 0
8.8400 -26.4980 0.4431 12 242 0
7.9025 -26.1855 0.1306 0 255 0
7.5900 -25.8730 0.1306 0 255 0
7.2775 -25.7167 0.1306 0 255 0
7.5900 -25.7167 0.2869 6 248 0
7.5900 -25.5605 0.2869 6 248 0
7.7463 -25.7167 0.1306 0 255 0
7.7463 -25.5605 0.1306 0 255 0
7.9025 -25.5605 0.1306 0 255 0
7.7463 -25.5605 0.2869 6 248 0
7.9025 -25.4042 0.1306 0 255 0
7.9025 -25.2480 0.1306 0 255 0
7.7463 -25.4042 0.2869 6 248 0
8.2150 -26.1855 0.1306 0 255 0
8.3713 -26.1855 0.2869 6 248 0
8.5275 -26.0292 0.2869 6 248 0
8.2150 -26.1855 0.4431 12 242 0
8.8400 -26.1855 0.1306 0 255 0
8.8400 -26.0292 0.2869 6 248 0
8.8400 -26.3417 0.5994 19 235 0
8.8400 -26.0292 0.4431 12 242 0
9.1525 -25.8730 0.4431 12 242 0
8.5275 -25.7167 0.1306 0 255 0
8.3713 -25.5605 0.1306 0 255 0
8.2150 -25.4042 0.1306 0 255 0
8.0588 -25.2480 0.1306 0 255 0
8.0588 -25.2480 0.2869 6 248 0
8.2150 -25.2480 0.2869 6 248 0
8.3713 -25.2480 0.1306 0 255 0
8.8400 -25.7167 0.1306 0 255 0
8.6838 -25.7167 0.2869 6 248 0
9.1525 -25.5605 0.1306 0 255 0
9.1525 -25.7167 0.2869 6 248 0
8.9963 -25.2480 0.1306 0 255 0
5.0900 -25.0917 -0.6506 0 223 31
5.2463 -24.7792 -0.6506 0 223 31
4.3088 -24.4667 -0.8069 0 216 38
4.6213 -24.1542 -0.8069 0 216 38
4.7775 -23.9980 -0.8069 0 216 38
5.5588 -24.6230 -0.6506 0 223 31
6.0275 -24.3105 -0.6506 0 223 31
6.3400 -23.9980 -0.8069 0 216 38
6.6525 -24.1542 -0.6506 0 223 31
5.8713 -24.9355 -0.4944 0 229 25
6.1838 -24.7792 -0.4944 0 229 25
6.3400 -24.4667 -0.4944 0 229 25
4.9338 -23.8417 -0.8069 0 216 38
4.9338 -23.5292 -0.8069 0 216 38
4.9338 -23.3730 -0.8069 0 216 38
4.3088 -22.9042 -1.1194 0 204 50
5.0900 -23.2167 -0.9631 0 210 44
5.0900 -23.0605 -0.9631 0 210 44
5.0900 -22.7480 -0.9631 0 210 44
5.2463 -22.9042 -0.9631 0 210 44
6.6525 -23.6855 -0.8069 0 216 38
6.6525 -23.5292 -0.8069 0 216 38
4.9338 -24.9355 0.5994 19 235 0
4.4650 -24.9355 0.9119 31 223 0
4.4650 -24.3105 0.7556 25 229 0
4.7775 -23.9980 0.7556 25 229 0
4.3088 -23.9980 1.0681 38 216 0
4.3088 -23.9980 1.2244 44 210 0
5.0900 -24.4667 0.9119 31 223 0
4.9338 -23.9980 0.9119 31 223 0
5.0900 -23.9980 0.9119 31 223 0
5.2463 -23.9980 0.9119 31 223 0
4.9338 -24.1542 1.0681 38 216 0
5.0900 -24.1542 1.0681 38 216 0
5.4025 -23.9980 1.0681 38 216 0
5.8713 -24.1542 0.5994 19 235 0
6.0275 -24.9355 1.2244 44 210 0
6.4963 -24.6230 1.2244 44 210 0
5.5588 -24.1542 0.9119 31 223 0
6.0275 -23.9980 0.7556 25 229 0
5.8713 -23.9980 1.0681 38 216 0
6.0275 -23.9980 1.0681 38 216 0
6.1838 -23.9980 1.0681 38 216 0
6.6525 -24.1542 1.2244 44 210 0
6.6525 -23.9980 1.2244 44 210 0
4.4650 -23.6855 0.9119 31 223 0
4.4650 -23.5292 0.9119 31 223 0
4.6213 -23.3730 0.9119 31 223 0
4.3088 -23.8417 1.0681 38 216 0
4.4650 -23.8417 1.0681 38 216 0
4.4650 -23.6855 1.0681 38 216 0
4.6213 -23.8417 1.2244 44 210 0
4.6213 -23.3730 1.0681 38 216 0
4.7775 -23.5292 1.2244 44 210 0
5.0900 -23.8417 0.9119 31 223 0
5.0900 -23.6855 0.9119 31 223 0
5.2463 -23.8417 0.9119 31 223 0
5.2463 -23.6855 0.9119 31 223 0
5.2463 -23.5292 0.9119 31 223 0
5.4025 -23.5292 0.9119 31 223 0
5.2463 -23.3730 0.9119 31 223 0
5.4025 -23.3730 0.9119 31 223 0
4.9338 -23.8417 1.2244 44 210 0
4.9338 -23.6855 1.2244 44 210 0
5.0900 -23.6855 1.2244 44 210 0
5.0900 -23.5292 1.2244 44 210 0
5.4025 -23.5292 1.2244 44 210 0
5.2463 -23.3730 1.2244 44 210 0
4.3088 -23.0605 0.7556 25 229 0
4.7775 -23.2167 0.9119 31 223 0
4.7775 -23.0605 0.9119 31 223 0
4.3088 -22.9042 0.7556 25 229 0
4.3088 -22.7480 0.7556 25 229 0
4.4650 -22.7480 0.7556 25 229 0
4.3088 -22.9042 0.9119 31 223 0
4.3088 -22.7480 0.9119 31 223 0
4.4650 -22.7480 0.9119 31 223 0
4.3088 -23.2167 1.0681 38 216 0
4.3088 -23.0605 1.0681 38 216 0
4.4650 -22.9042 1.0681 38 216 0
4.7775 -22.9042 1.0681 38 216 0
4.6213 -22.7480 1.0681 38 216 0
5.4025 -23.2167 0.9119 31 223 0
4.9338 -22.9042 0.9119 31 223 0
4.9338 -22.7480 0.9119 31 223 0
5.0900 -22.7480 0.9119 31 223 0
5.4025 -23.2167 1.2244 44 210 0
5.4025 -23.0605 1.2244 44 210 0
4.9338 -22.7480 1.0681 38 216 0
6.1838 -23.8417 0.5994 19 235 0
6.0275 -23.8417 0.9119 31 223 0
5.5588 -23.5292 0.7556 25 229 0
5.5588 -23.3730 0.9119 31 223 0
5.7150 -23.3730 0.9119 31 223 0
5.5588 -23.8417 1.0681 38 216 0
5.5588 -23.6855 1.0681 38 216 0
5.5588 -23.6855 1.2244 44 210 0
5.8713 -23.8417 1.0681 38 216 0
5.8713 -23.6855 1.0681 38 216 0
6.0275 -23.6855 1.0681 38 216 0
5.5588 -23.5292 1.0681 38 216 0
5.7150 -23.5292 1.0681 38 216 0
5.5588 -23.5292 1.2244 44 210 0
5.5588 -23.3730 1.2244 44 210 0
5.7150 -23.3730 1.2244 44 210 0
6.0275 -23.5292 1.0681 38 216 0
6.1838 -23.6855 0.7556 25 229 0
6.6525 -23.3730 0.7556 25 229 0
6.4963 -23.5292 0.9119 31 223 0
6.1838 -23.8417 1.0681 38 216 0
6.1838 -23.6855 1.0681 38 216 0
6.6525 -23.8417 1.0681 38 216 0
6.6525 -23.8417 1.2244 44 210 0
6.1838 -23.5292 1.0681 38 216 0
6.3400 -23.5292 1.0681 38 216 0
6.1838 -23.3730 1.0681 38 216 0
6.3400 -23.3730 1.0681 38 216 0
6.4963 -23.3730 1.0681 38 216 0
5.5588 -23.2167 0.9119 31 223 0
5.5588 -23.0605 0.9119 31 223 0
5.7150 -23.0605 0.9119 31 223 0
6.0275 -23.2167 0.7556 25 229 0
5.8713 -23.2167 0.9119 31 223 0
5.8713 -23.0605 0.9119 31 223 0
5.5588 -22.9042 0.7556 25 229 0
5.5588 -22.7480 0.7556 25 229 0
5.7150 -22.7480 0.7556 25 229 0
5.5588 -22.9042 0.9119 31 223 0
5.7150 -22.9042 0.9119 31 223 0
