ply
format ascii 1.0
comment OctoMap 3D export - Moose Robot
comment Resolution: 0.100 m
element vertex 1440
property float x
property float y
property float z
property uchar red
property uchar green
property uchar blue
end_header
-0.7031 -14.2969 -3.0469 0 55 199
-0.5469 -14.1406 -3.0469 0 55 199
-0.5469 -14.1406 -2.8906 0 63 191
-0.0781 -14.1406 -2.8906 0 63 191
-0.3906 -13.9844 -2.8906 0 63 191
-0.2344 -13.9844 -2.8906 0 63 191
-0.2344 -13.8281 -2.8906 0 63 191
-1.1719 -13.6719 -2.8906 0 63 191
-1.0156 -13.2031 -2.8906 0 63 191
-0.5469 -13.6719 -2.8906 0 63 191
-0.3906 -13.5156 -2.8906 0 63 191
-0.2344 -13.3594 -2.8906 0 63 191
-0.3906 -13.5156 -2.7344 0 71 183
-0.0781 -13.5156 -2.7344 0 71 183
-0.7031 -12.7344 -2.7344 0 71 183
-0.2344 -13.0469 -2.7344 0 71 183
-0.0781 -12.8906 -2.7344 0 71 183
-0.0781 -12.5781 -2.7344 0 71 183
-0.5469 -12.2656 -2.5781 0 79 175
-0.3906 -11.9531 -2.5781 0 79 175
-0.2344 -11.4844 -2.5781 0 79 175
-0.0781 -11.1719 -2.4219 0 87 167
-19.6094 -5.5469 4.9219 207 47 0
-17.4219 -0.7031 1.4844 31 223 0
-17.1094 -0.5469 1.4844 31 223 0
-17.2656 -0.2344 1.4844 31 223 0
-17.2656 -0.3906 1.7969 47 207 0
-17.1094 -0.5469 1.6406 39 215 0
-17.2656 -0.2344 1.6406 39 215 0
-17.2656 -1.1719 1.9531 55 199 0
-17.2656 -1.0156 1.9531 55 199 0
-17.1094 -1.0156 1.9531 55 199 0
-17.2656 -0.8594 1.9531 55 199 0
-17.2656 -0.8594 2.1094 63 191 0
-17.1094 -0.7031 1.9531 55 199 0
-17.2656 -0.5469 1.9531 55 199 0
-17.1094 -0.5469 1.9531 55 199 0
-17.1094 -0.3906 1.9531 55 199 0
-17.1094 -0.2344 1.9531 55 199 0
-17.2656 -0.3906 2.2656 71 183 0
-17.1094 -0.0781 2.2656 71 183 0
-16.4844 -3.8281 4.6094 191 63 0
-16.0156 -3.9844 4.9219 207 47 0
-16.1719 -3.8281 4.9219 207 47 0
-16.9531 -3.2031 4.2969 175 79 0
-16.7969 -3.3594 4.2969 175 79 0
-16.3281 -3.3594 4.1406 167 87 0
-17.1094 -3.0469 4.2969 175 79 0
-16.4844 -3.0469 4.2969 175 79 0
-16.9531 -3.3594 4.7656 199 55 0
-16.6406 -3.5156 4.6094 191 63 0
-16.4844 -3.6719 4.4531 183 71 0
-16.4844 -3.6719 4.6094 191 63 0
-16.3281 -3.6719 4.6094 191 63 0
-16.6406 -3.3594 4.4531 183 71 0
-16.7969 -3.3594 4.6094 191 63 0
-16.7969 -3.2031 4.6094 191 63 0
-16.6406 -3.2031 4.6094 191 63 0
-16.4844 -3.3594 4.6094 191 63 0
-16.6406 -3.6719 4.7656 199 55 0
-16.7969 -3.5156 4.7656 199 55 0
-16.4844 -3.5156 4.7656 199 55 0
-16.3281 -3.5156 4.9219 207 47 0
-16.7969 -3.3594 4.7656 199 55 0
-16.6406 -3.3594 4.7656 199 55 0
-16.7969 -3.2031 4.7656 199 55 0
-16.4844 -3.3594 4.9219 207 47 0
-16.9531 -3.0469 4.6094 191 63 0
-17.2656 -2.7344 4.4531 183 71 0
-16.9531 -2.5781 4.6094 191 63 0
-16.9531 -3.0469 4.7656 199 55 0
-17.4219 -2.5781 4.9219 207 47 0
-17.2656 -2.5781 4.9219 207 47 0
-17.1094 -2.7344 4.9219 207 47 0
-16.6406 -2.8906 4.4531 183 71 0
-16.7969 -2.7344 4.4531 183 71 0
-16.6406 -2.7344 4.4531 183 71 0
-16.6406 -2.5781 4.6094 191 63 0
-16.4844 -2.7344 4.6094 191 63 0
-16.6406 -2.8906 4.9219 207 47 0
-16.4844 -2.8906 4.7656 199 55 0
-16.6406 -2.7344 4.7656 199 55 0
-16.7969 -2.7344 4.9219 207 47 0
-16.1719 -3.6719 4.9219 207 47 0
-18.2031 -2.1094 4.6094 191 63 0
-17.5781 -1.3281 4.9219 207 47 0
-18.2031 -0.8594 4.9219 207 47 0
-16.9531 -2.2656 4.2969 175 79 0
-16.7969 -2.4219 4.2969 175 79 0
-16.6406 -1.3281 4.2969 175 79 0
-17.1094 -2.4219 4.6094 191 63 0
-17.1094 -2.2656 4.6094 191 63 0
-17.1094 -2.1094 4.4531 183 71 0
-16.9531 -2.1094 4.4531 183 71 0
-17.1094 -1.9531 4.6094 191 63 0
-17.4219 -2.4219 4.9219 207 47 0
-17.1094 -2.2656 4.7656 199 55 0
-16.9531 -2.2656 4.7656 199 55 0
-16.9531 -2.2656 4.9219 207 47 0
-17.4219 -2.1094 4.7656 199 55 0
-17.4219 -1.9531 4.7656 199 55 0
-17.2656 -2.1094 4.9219 207 47 0
-17.4219 -1.9531 4.9219 207 47 0
-17.1094 -2.1094 4.7656 199 55 0
-17.1094 -2.1094 4.9219 207 47 0
-16.9531 -1.9531 4.9219 207 47 0
-16.6406 -2.4219 4.4531 183 71 0
-16.7969 -2.2656 4.4531 183 71 0
-16.7969 -2.4219 4.7656 199 55 0
-17.2656 -1.7969 4.6094 191 63 0
-17.2656 -1.6406 4.6094 191 63 0
-17.4219 -1.6406 4.7656 199 55 0
-16.9531 -1.7969 4.7656 199 55 0
-17.4219 -1.4844 4.9219 207 47 0
-16.9531 -1.3281 4.7656 199 55 0
-16.6406 -1.3281 4.6094 191 63 0
-16.4844 -1.4844 4.7656 199 55 0
-16.3281 -1.3281 4.7656 199 55 0
-15.0781 -2.4219 4.2969 175 79 0
-15.2344 -2.2656 4.2969 175 79 0
-15.0781 -2.2656 4.2969 175 79 0
-15.0781 -1.9531 4.2969 175 79 0
-15.3906 -2.1094 4.4531 183 71 0
-15.0781 -2.1094 4.6094 191 63 0
-15.2344 -1.9531 4.6094 191 63 0
-15.0781 -1.7969 4.4531 183 71 0
-15.2344 -1.6406 4.4531 183 71 0
-15.3906 -1.4844 4.6094 191 63 0
-15.3906 -1.3281 4.6094 191 63 0
-15.3906 -1.7969 4.7656 199 55 0
-15.5469 -1.6406 4.7656 199 55 0
-17.2656 -1.0156 4.4531 183 71 0
-17.4219 -1.0156 4.6094 191 63 0
-16.9531 -1.1719 4.4531 183 71 0
-17.4219 -0.8594 4.4531 183 71 0
-17.4219 -1.0156 4.9219 207 47 0
-17.2656 -0.7031 4.7656 199 55 0
-17.2656 -0.7031 4.9219 207 47 0
-16.7969 -1.1719 4.9219 207 47 0
-16.4844 -0.7031 4.7656 199 55 0
-17.2656 -0.3906 4.4531 183 71 0
-17.2656 -0.2344 4.6094 191 63 0
-17.4219 -0.5469 4.7656 199 55 0
-17.1094 -0.5469 4.7656 199 55 0
-16.9531 -0.3906 4.9219 207 47 0
-16.7969 -0.5469 4.9219 207 47 0
-16.6406 -0.3906 4.9219 207 47 0
-16.3281 -0.5469 4.7656 199 55 0
-15.7031 -0.0781 4.2969 175 79 0
-16.1719 -0.8594 4.6094 191 63 0
-16.1719 -0.3906 4.6094 191 63 0
-16.0156 -0.0781 4.4531 183 71 0
-15.7031 -0.0781 4.6094 191 63 0
-14.9219 -2.5781 4.2969 175 79 0
-14.4531 -3.0469 4.4531 183 71 0
-14.4531 -2.8906 4.4531 183 71 0
-14.6094 -2.5781 4.4531 183 71 0
-14.7656 -2.2656 4.1406 167 87 0
-14.9219 -2.1094 4.1406 167 87 0
-14.7656 -2.4219 4.4531 183 71 0
-14.9219 -2.2656 4.4531 183 71 0
-14.9219 -1.9531 4.4531 183 71 0
-8.8281 -8.8281 -1.6406 0 127 127
-8.0469 -8.8281 -2.1094 0 103 151
-9.6094 -8.0469 -1.4844 0 135 119
-9.4531 -7.7344 -1.4844 0 135 119
-8.9844 -7.8906 -1.4844 0 135 119
-9.2969 -7.5781 -1.4844 0 135 119
-9.2969 -7.5781 -1.3281 0 143 111
-8.8281 -7.7344 -1.4844 0 135 119
-8.5156 -8.2031 -1.6406 0 127 127
-8.5156 -8.2031 -1.4844 0 135 119
-7.8906 -8.2031 -1.7969 0 119 135
-8.6719 -7.5781 -1.6406 0 127 127
-8.5156 -7.5781 -1.6406 0 127 127
-8.3594 -7.7344 -1.6406 0 127 127
-8.2031 -7.7344 -1.6406 0 127 127
-7.5781 -7.5781 -1.7969 0 119 135
-7.7344 -7.5781 -1.6406 0 127 127
-7.8906 -7.5781 -1.3281 0 143 111
-8.2031 -7.5781 -1.1719 0 151 103
-6.0156 -9.4531 -1.4844 0 135 119
-5.8594 -8.9844 -1.4844 0 135 119
-7.4219 -8.2031 -1.9531 0 111 143
-7.1094 -7.5781 -1.9531 0 111 143
-7.4219 -7.7344 -1.7969 0 119 135
-7.4219 -8.0469 -1.3281 0 143 111
-7.4219 -7.8906 -1.3281 0 143 111
-5.8594 -8.5156 -1.3281 0 143 111
-7.4219 -7.5781 -1.1719 0 151 103
-6.3281 -7.8906 -1.1719 0 151 103
-6.3281 -7.5781 -1.1719 0 151 103
-5.7031 -7.8906 -1.1719 0 151 103
-5.7031 -7.7344 -1.1719 0 151 103
-9.1406 -7.1094 -1.3281 0 143 111
-8.9844 -7.1094 -1.4844 0 135 119
-8.9844 -6.4844 -1.3281 0 143 111
-8.5156 -7.2656 -1.4844 0 135 119
-8.6719 -7.2656 -1.3281 0 143 111
-8.3594 -6.9531 -1.4844 0 135 119
-8.3594 -7.1094 -1.3281 0 143 111
-8.0469 -7.4219 -1.6406 0 127 127
-7.7344 -7.2656 -1.6406 0 127 127
-7.5781 -6.9531 -1.6406 0 127 127
-7.8906 -7.2656 -1.3281 0 143 111
-7.8906 -6.9531 -1.4844 0 135 119
-7.7344 -6.9531 -1.3281 0 143 111
-8.3594 -6.7969 -1.4844 0 135 119
-8.6719 -6.3281 -1.3281 0 143 111
-8.0469 -6.7969 -1.4844 0 135 119
-7.7344 -6.6406 -1.4844 0 135 119
-7.5781 -6.6406 -1.4844 0 135 119
-8.0469 -6.3281 -1.3281 0 143 111
-7.7344 -6.4844 -1.4844 0 135 119
-8.0469 -6.1719 -1.3281 0 143 111
-7.8906 -6.0156 -1.3281 0 143 111
-7.5781 -6.1719 -1.4844 0 135 119
-7.7344 -6.0156 -1.3281 0 143 111
-7.8906 -5.8594 -1.3281 0 143 111
-7.7344 -5.8594 -1.3281 0 143 111
-7.7344 -5.7031 -1.3281 0 143 111
-7.7344 -5.5469 -1.3281 0 143 111
-7.5781 -5.5469 -1.3281 0 143 111
-8.8281 -6.6406 -1.1719 0 151 103
-8.2031 -6.9531 -1.1719 0 151 103
-8.0469 -7.2656 -1.1719 0 151 103
-7.8906 -6.9531 -1.1719 0 151 103
-8.6719 -6.6406 -1.1719 0 151 103
-8.3594 -6.7969 -1.1719 0 151 103
-8.2031 -6.6406 -1.1719 0 151 103
-8.6719 -6.3281 -1.1719 0 151 103
-8.5156 -6.3281 -1.1719 0 151 103
-7.7344 -6.7969 -1.1719 0 151 103
-7.7344 -6.6406 -1.0156 0 159 95
-7.5781 -6.4844 -1.1719 0 151 103
-7.5781 -6.3281 -1.1719 0 151 103
-8.8281 -6.0156 -1.1719 0 151 103
-8.6719 -6.0156 -1.1719 0 151 103
-8.3594 -6.0156 -1.1719 0 151 103
-8.6719 -5.7031 -1.1719 0 151 103
-8.5156 -5.8594 -1.0156 0 159 95
-8.3594 -5.8594 -1.1719 0 151 103
-8.3594 -5.7031 -1.0156 0 159 95
-8.0469 -6.1719 -1.1719 0 151 103
-7.5781 -6.1719 -1.0156 0 159 95
-7.8906 -5.7031 -1.1719 0 151 103
-7.8906 -5.8594 -1.0156 0 159 95
-8.5156 -5.3906 -1.1719 0 151 103
-8.3594 -5.3906 -1.0156 0 159 95
-8.2031 -5.3906 -1.0156 0 159 95
-8.5156 -5.2344 -1.0156 0 159 95
-8.2031 -5.2344 -1.0156 0 159 95
-8.3594 -5.0781 -1.0156 0 159 95
-7.8906 -5.5469 -1.1719 0 151 103
-8.0469 -5.3906 -1.1719 0 151 103
-7.7344 -5.3906 -1.1719 0 151 103
-7.7344 -5.5469 -1.0156 0 159 95
-7.7344 -5.3906 -1.0156 0 159 95
-8.0469 -5.2344 -1.1719 0 151 103
-7.7344 -5.2344 -1.1719 0 151 103
-7.7344 -5.2344 -1.0156 0 159 95
-7.7344 -5.0781 -0.8594 0 167 87
-7.2656 -7.4219 -1.7969 0 119 135
-7.2656 -6.7969 -1.6406 0 127 127
-7.1094 -6.7969 -1.7969 0 119 135
-7.1094 -6.6406 -1.7969 0 119 135
-7.2656 -6.4844 -1.6406 0 127 127
-7.2656 -6.3281 -1.6406 0 127 127
-6.9531 -6.3281 -1.6406 0 127 127
-7.4219 -6.3281 -1.4844 0 135 119
-7.4219 -5.8594 -1.3281 0 143 111
-7.1094 -5.8594 -1.4844 0 135 119
-7.1094 -5.7031 -1.4844 0 135 119
-6.6406 -5.7031 -1.4844 0 135 119
-6.4844 -5.8594 -1.4844 0 135 119
-7.2656 -5.3906 -1.4844 0 135 119
-7.4219 -5.5469 -1.3281 0 143 111
-7.1094 -5.5469 -1.4844 0 135 119
-7.2656 -5.0781 -1.4844 0 135 119
-7.2656 -5.0781 -1.3281 0 143 111
-6.6406 -5.5469 -1.4844 0 135 119
-6.6406 -5.3906 -1.3281 0 143 111
-6.6406 -5.2344 -1.3281 0 143 111
-6.6406 -5.0781 -1.3281 0 143 111
-6.3281 -5.2344 -1.4844 0 135 119
-6.4844 -5.0781 -1.4844 0 135 119
-7.2656 -7.2656 -1.1719 0 151 103
-6.3281 -7.4219 -1.1719 0 151 103
-5.7031 -7.4219 -1.1719 0 151 103
-5.7031 -7.2656 -1.1719 0 151 103
-6.1719 -7.1094 -1.1719 0 151 103
-6.1719 -6.9531 -1.0156 0 159 95
-6.1719 -6.7969 -1.0156 0 159 95
-6.1719 -6.6406 -1.0156 0 159 95
-6.1719 -6.4844 -1.0156 0 159 95
-6.1719 -6.3281 -1.0156 0 159 95
-7.4219 -6.0156 -1.1719 0 151 103
-7.4219 -6.0156 -1.0156 0 159 95
-7.2656 -5.7031 -1.1719 0 151 103
-7.2656 -5.7031 -1.0156 0 159 95
-7.4219 -5.8594 -0.8594 0 167 87
-7.2656 -5.3906 -1.1719 0 151 103
-7.2656 -5.5469 -1.0156 0 159 95
-7.2656 -5.3906 -1.0156 0 159 95
-7.2656 -5.2344 -1.0156 0 159 95
-7.4219 -5.5469 -0.8594 0 167 87
-7.4219 -5.3906 -0.8594 0 167 87
-6.1719 -6.1719 -0.8594 0 167 87
-6.1719 -6.0156 -0.8594 0 167 87
-6.1719 -5.8594 -0.8594 0 167 87
-6.0156 -5.2344 -0.8594 0 167 87
-6.0156 -5.2344 -0.7031 0 175 79
-8.5156 -4.9219 -1.0156 0 159 95
-8.3594 -4.7656 -1.0156 0 159 95
-8.2031 -4.6094 -1.0156 0 159 95
-8.3594 -4.7656 -0.8594 0 167 87
-8.2031 -4.4531 -0.8594 0 167 87
-8.0469 -4.9219 -1.0156 0 159 95
-7.8906 -4.9219 -1.0156 0 159 95
-7.7344 -4.9219 -1.1719 0 151 103
-7.5781 -4.9219 -1.1719 0 151 103
-7.5781 -4.7656 -1.0156 0 159 95
-7.8906 -4.6094 -1.0156 0 159 95
-7.8906 -4.4531 -1.0156 0 159 95
-7.5781 -4.6094 -1.1719 0 151 103
-7.7344 -4.4531 -1.0156 0 159 95
-7.5781 -4.4531 -1.0156 0 159 95
-8.0469 -4.9219 -0.8594 0 167 87
-8.0469 -4.7656 -0.8594 0 167 87
-7.5781 -4.7656 -0.8594 0 167 87
-8.0469 -4.6094 -0.8594 0 167 87
-8.2031 -4.2969 -0.8594 0 167 87
-8.2031 -4.1406 -0.8594 0 167 87
-7.7344 -4.1406 -1.0156 0 159 95
-7.5781 -3.8281 -1.0156 0 159 95
-8.0469 -4.2969 -0.8594 0 167 87
-7.8906 -4.2969 -0.8594 0 167 87
-8.0469 -4.1406 -0.8594 0 167 87
-7.8906 -4.1406 -0.7031 0 175 79
-7.8906 -3.8281 -0.8594 0 167 87
-7.8906 -3.9844 -0.7031 0 175 79
-8.0469 -3.8281 -0.7031 0 175 79
-7.7344 -3.9844 -0.8594 0 167 87
-7.5781 -3.8281 -0.8594 0 167 87
-7.7344 -3.9844 -0.7031 0 175 79
-7.7344 -3.8281 -0.7031 0 175 79
-8.2031 -3.6719 -0.8594 0 167 87
-8.2031 -3.5156 -0.8594 0 167 87
-8.2031 -3.3594 -0.7031 0 175 79
-7.5781 -3.6719 -1.0156 0 159 95
-7.8906 -3.6719 -0.8594 0 167 87
-7.8906 -3.5156 -0.8594 0 167 87
-8.0469 -3.6719 -0.7031 0 175 79
-8.0469 -3.5156 -0.7031 0 175 79
-7.5781 -3.6719 -0.8594 0 167 87
-7.5781 -3.5156 -0.8594 0 167 87
-7.7344 -3.6719 -0.7031 0 175 79
-7.8906 -3.3594 -0.8594 0 167 87
-7.8906 -3.3594 -0.7031 0 175 79
-8.0469 -3.2031 -0.7031 0 175 79
-7.8906 -3.2031 -0.7031 0 175 79
-7.5781 -3.3594 -0.8594 0 167 87
-7.5781 -3.2031 -0.8594 0 167 87
-7.5781 -3.3594 -0.7031 0 175 79
-7.5781 -3.2031 -0.7031 0 175 79
-8.0469 -3.0469 -0.7031 0 175 79
-8.0469 -2.8906 -0.7031 0 175 79
-7.7344 -3.0469 -0.7031 0 175 79
-7.7344 -2.8906 -0.7031 0 175 79
-7.8906 -2.7344 -0.7031 0 175 79
-7.7344 -2.7344 -0.7031 0 175 79
-7.7344 -2.5781 -0.7031 0 175 79
-7.5781 -2.5781 -0.7031 0 175 79
-7.5781 -3.2031 -0.5469 0 183 71
-7.8906 -2.8906 -0.5469 0 183 71
-7.5781 -3.0469 -0.5469 0 183 71
-7.7344 -2.8906 -0.5469 0 183 71
-7.8906 -2.5781 -0.5469 0 183 71
-7.7344 -2.7344 -0.5469 0 183 71
-7.7344 -2.5781 -0.5469 0 183 71
-7.2656 -4.7656 -1.3281 0 143 111
-7.2656 -4.6094 -1.3281 0 143 111
-7.2656 -4.4531 -1.3281 0 143 111
-6.7969 -4.9219 -1.3281 0 143 111
-6.4844 -4.9219 -1.4844 0 135 119
-6.4844 -4.7656 -1.3281 0 143 111
-6.6406 -4.6094 -1.3281 0 143 111
-6.4844 -4.6094 -1.3281 0 143 111
-6.4844 -4.2969 -1.3281 0 143 111
-6.4844 -3.9844 -1.3281 0 143 111
-7.4219 -4.9219 -1.1719 0 151 103
-7.4219 -4.7656 -1.1719 0 151 103
-7.1094 -4.7656 -1.1719 0 151 103
-7.4219 -4.6094 -1.0156 0 159 95
-7.1094 -4.6094 -1.1719 0 151 103
-7.1094 -4.4531 -1.1719 0 151 103
-7.1094 -4.7656 -0.7031 0 175 79
-7.1094 -4.6094 -0.7031 0 175 79
-6.7969 -4.6094 -1.1719 0 151 103
-7.4219 -4.2969 -1.0156 0 159 95
-7.4219 -4.1406 -1.0156 0 159 95
-7.2656 -4.1406 -1.0156 0 159 95
-7.1094 -4.2969 -1.1719 0 151 103
-7.1094 -4.1406 -1.0156 0 159 95
-7.2656 -3.9844 -1.0156 0 159 95
-7.2656 -3.8281 -1.0156 0 159 95
-7.1094 -3.9844 -1.0156 0 159 95
-7.1094 -3.8281 -1.0156 0 159 95
-7.4219 -4.2969 -0.8594 0 167 87
-7.4219 -4.1406 -0.8594 0 167 87
-7.4219 -4.1406 -0.7031 0 175 79
-7.4219 -3.9844 -0.7031 0 175 79
-7.1094 -3.8281 -0.8594 0 167 87
-6.7969 -4.2969 -1.1719 0 151 103
-6.7969 -4.1406 -1.1719 0 151 103
-6.7969 -3.8281 -1.1719 0 151 103
-6.9531 -3.9844 -0.5469 0 183 71
-6.9531 -3.8281 -0.5469 0 183 71
-6.0156 -4.6094 -0.7031 0 175 79
-6.9531 -3.5156 -1.1719 0 151 103
-7.1094 -3.6719 -1.0156 0 159 95
-7.1094 -3.5156 -1.0156 0 159 95
-6.9531 -3.3594 -1.0156 0 159 95
-7.1094 -3.2031 -1.0156 0 159 95
-7.1094 -3.5156 -0.8594 0 167 87
-7.4219 -3.3594 -0.8594 0 167 87
-7.4219 -3.2031 -0.8594 0 167 87
-7.2656 -3.2031 -0.8594 0 167 87
-7.1094 -3.3594 -0.8594 0 167 87
-7.1094 -3.3594 -0.7031 0 175 79
-6.7969 -3.6719 -1.1719 0 151 103
-6.6406 -3.6719 -1.1719 0 151 103
-6.6406 -3.5156 -1.1719 0 151 103
-6.4844 -3.5156 -1.0156 0 159 95
-6.6406 -3.2031 -1.0156 0 159 95
-6.4844 -3.3594 -1.0156 0 159 95
-7.1094 -3.0469 -1.0156 0 159 95
-6.9531 -2.8906 -1.0156 0 159 95
-6.9531 -2.7344 -1.0156 0 159 95
-6.9531 -2.5781 -1.0156 0 159 95
-7.4219 -2.8906 -0.8594 0 167 87
-7.2656 -2.8906 -0.8594 0 167 87
-6.9531 -3.0469 -0.8594 0 167 87
-7.1094 -2.8906 -0.8594 0 167 87
-6.9531 -2.8906 -0.8594 0 167 87
-7.4219 -2.7344 -0.7031 0 175 79
-7.4219 -2.5781 -0.7031 0 175 79
-7.1094 -2.7344 -0.8594 0 167 87
-6.9531 -2.7344 -0.8594 0 167 87
-7.1094 -2.5781 -0.8594 0 167 87
-7.1094 -2.5781 -0.7031 0 175 79
-6.6406 -3.0469 -1.0156 0 159 95
-6.6406 -2.8906 -1.0156 0 159 95
-6.3281 -3.0469 -1.0156 0 159 95
-6.4844 -2.8906 -1.0156 0 159 95
-6.4844 -2.7344 -1.0156 0 159 95
-6.4844 -2.5781 -1.0156 0 159 95
-6.6406 -2.7344 -0.8594 0 167 87
-6.7969 -2.5781 -0.8594 0 167 87
-6.6406 -2.5781 -0.8594 0 167 87
-6.7969 -3.6719 -0.5469 0 183 71
-7.4219 -3.0469 -0.5469 0 183 71
-7.4219 -2.8906 -0.5469 0 183 71
-7.5781 -2.4219 -0.7031 0 175 79
-7.5781 -2.2656 -0.7031 0 175 79
-7.8906 -2.4219 -0.5469 0 183 71
-7.7344 -2.4219 -0.5469 0 183 71
-7.5781 -2.4219 -0.5469 0 183 71
-7.7344 -2.2656 -0.5469 0 183 71
-7.5781 -2.2656 -0.5469 0 183 71
-7.7344 -2.1094 -0.5469 0 183 71
-7.5781 -2.1094 -0.5469 0 183 71
-7.7344 -1.9531 -0.5469 0 183 71
-7.5781 -1.9531 -0.5469 0 183 71
-7.5781 -2.1094 -0.3906 0 191 63
-7.5781 -1.9531 -0.3906 0 191 63
-7.5781 -1.7969 -0.5469 0 183 71
-7.5781 -1.6406 -0.5469 0 183 71
-7.7344 -1.7969 -0.3906 0 191 63
-7.5781 -1.7969 -0.3906 0 191 63
-7.7344 -1.6406 -0.3906 0 191 63
-7.5781 -1.6406 -0.3906 0 191 63
-7.7344 -1.4844 -0.3906 0 191 63
-7.5781 -1.4844 -0.3906 0 191 63
-7.5781 -1.3281 -0.3906 0 191 63
-7.5781 -1.1719 -0.3906 0 191 63
-7.7344 -0.8594 -0.3906 0 191 63
-7.5781 -0.7031 -0.3906 0 191 63
-7.5781 -1.0156 -0.2344 0 199 55
-7.5781 -0.5469 -0.2344 0 199 55
-7.5781 -0.3906 -0.2344 0 199 55
-7.2656 -2.4219 -0.7031 0 175 79
-7.2656 -2.2656 -0.7031 0 175 79
-7.1094 -2.4219 -0.7031 0 175 79
-7.1094 -2.2656 -0.7031 0 175 79
-7.4219 -2.1094 -0.7031 0 175 79
-7.4219 -1.9531 -0.7031 0 175 79
-6.9531 -1.9531 -0.8594 0 167 87
-7.1094 -2.1094 -0.7031 0 175 79
-6.9531 -2.1094 -0.7031 0 175 79
-6.9531 -1.9531 -0.7031 0 175 79
-6.4844 -2.4219 -1.0156 0 159 95
-6.4844 -2.2656 -1.0156 0 159 95
-6.7969 -2.4219 -0.8594 0 167 87
-6.6406 -2.4219 -0.8594 0 167 87
-6.7969 -2.2656 -0.8594 0 167 87
-6.4844 -2.2656 -0.8594 0 167 87
-6.7969 -2.1094 -0.8594 0 167 87
-6.7969 -1.9531 -0.8594 0 167 87
-6.4844 -2.1094 -0.8594 0 167 87
-6.4844 -1.9531 -0.8594 0 167 87
-6.4844 -1.9531 -0.7031 0 175 79
-7.4219 -1.7969 -0.7031 0 175 79
-6.9531 -1.7969 -0.8594 0 167 87
-6.9531 -1.6406 -0.8594 0 167 87
-6.9531 -1.7969 -0.7031 0 175 79
-6.9531 -1.6406 -0.7031 0 175 79
-6.9531 -1.4844 -0.7031 0 175 79
-6.6406 -1.7969 -0.7031 0 175 79
-6.6406 -1.6406 -0.7031 0 175 79
-6.4844 -1.7969 -0.8594 0 167 87
-6.3281 -1.6406 -0.8594 0 167 87
-6.4844 -1.7969 -0.7031 0 175 79
-6.7969 -1.4844 -0.7031 0 175 79
-6.6406 -1.4844 -0.7031 0 175 79
-6.7969 -1.3281 -0.7031 0 175 79
-6.6406 -1.3281 -0.7031 0 175 79
-6.3281 -1.4844 -0.8594 0 167 87
-6.4844 -1.3281 -0.8594 0 167 87
-6.3281 -1.3281 -0.8594 0 167 87
-7.2656 -2.2656 -0.3906 0 191 63
-6.9531 -2.4219 -0.5469 0 183 71
-7.4219 -2.1094 -0.3906 0 191 63
-7.4219 -1.9531 -0.3906 0 191 63
-7.4219 -1.7969 -0.5469 0 183 71
-7.4219 -1.6406 -0.5469 0 183 71
-7.2656 -1.6406 -0.5469 0 183 71
-7.4219 -1.7969 -0.3906 0 191 63
-7.1094 -1.6406 -0.5469 0 183 71
-7.4219 -1.4844 -0.5469 0 183 71
-7.2656 -1.4844 -0.5469 0 183 71
-7.4219 -1.3281 -0.5469 0 183 71
-7.2656 -1.3281 -0.5469 0 183 71
-7.4219 -1.4844 -0.3906 0 191 63
-7.4219 -1.3281 -0.3906 0 191 63
-7.1094 -1.4844 -0.5469 0 183 71
-7.1094 -1.3281 -0.5469 0 183 71
-6.7969 -1.3281 -0.5469 0 183 71
-6.7969 -1.1719 -0.7031 0 175 79
-6.7969 -1.0156 -0.7031 0 175 79
-6.4844 -1.1719 -0.7031 0 175 79
-6.4844 -1.0156 -0.7031 0 175 79
-6.7969 -0.8594 -0.7031 0 175 79
-6.6406 -0.8594 -0.7031 0 175 79
-6.6406 -0.7031 -0.7031 0 175 79
-6.4844 -0.8594 -0.7031 0 175 79
-6.4844 -0.7031 -0.7031 0 175 79
-6.7969 -0.5469 -0.7031 0 175 79
-6.3281 -0.5469 -0.7031 0 175 79
-6.3281 -0.3906 -0.7031 0 175 79
-7.2656 -1.1719 -0.5469 0 183 71
-7.4219 -1.1719 -0.3906 0 191 63
-7.2656 -1.1719 -0.3906 0 191 63
-7.4219 -1.0156 -0.3906 0 191 63
-7.2656 -1.0156 -0.3906 0 191 63
-6.9531 -1.1719 -0.5469 0 183 71
-7.1094 -1.0156 -0.5469 0 183 71
-6.9531 -1.0156 -0.5469 0 183 71
-7.4219 -0.8594 -0.3906 0 191 63
-7.2656 -0.8594 -0.3906 0 191 63
-7.4219 -0.7031 -0.3906 0 191 63
-7.2656 -0.7031 -0.3906 0 191 63
-7.1094 -0.8594 -0.5469 0 183 71
-6.9531 -0.8594 -0.5469 0 183 71
-6.9531 -0.7031 -0.5469 0 183 71
-7.1094 -0.7031 -0.3906 0 191 63
-7.2656 -1.1719 -0.2344 0 199 55
-7.2656 -1.0156 -0.2344 0 199 55
-7.4219 -0.8594 -0.2344 0 199 55
-7.4219 -0.7031 -0.2344 0 199 55
-7.1094 -0.8594 -0.2344 0 199 55
-7.1094 -0.7031 -0.2344 0 199 55
-6.7969 -1.1719 -0.5469 0 183 71
-6.4844 -0.8594 -0.5469 0 183 71
-6.4844 -0.7031 -0.5469 0 183 71
-7.4219 -0.5469 -0.3906 0 191 63
-7.2656 -0.5469 -0.3906 0 191 63
-7.4219 -0.3906 -0.3906 0 191 63
-7.1094 -0.5469 -0.3906 0 191 63
-7.1094 -0.3906 -0.3906 0 191 63
-6.9531 -0.3906 -0.3906 0 191 63
-7.1094 -0.2344 -0.3906 0 191 63
-6.9531 -0.2344 -0.3906 0 191 63
-6.9531 -0.0781 -0.3906 0 191 63
-7.4219 -0.5469 -0.2344 0 199 55
-7.2656 -0.3906 -0.2344 0 199 55
-7.4219 -0.2344 -0.2344 0 199 55
-7.2656 -0.2344 -0.2344 0 199 55
-7.4219 -0.0781 -0.2344 0 199 55
-7.2656 -0.0781 -0.2344 0 199 55
-6.7969 -0.5469 -0.5469 0 183 71
-6.6406 -0.5469 -0.5469 0 183 71
-6.7969 -0.3906 -0.5469 0 183 71
-6.6406 -0.3906 -0.5469 0 183 71
-6.7969 -0.5469 -0.3906 0 191 63
-6.7969 -0.3906 -0.3906 0 191 63
-6.4844 -0.5469 -0.5469 0 183 71
-6.7969 -0.2344 -0.5469 0 183 71
-6.7969 -0.0781 -0.5469 0 183 71
-6.7969 -0.2344 -0.3906 0 191 63
-6.7969 -0.0781 -0.3906 0 191 63
-6.4844 -0.2344 -0.5469 0 183 71
-6.4844 -0.0781 -0.5469 0 183 71
-6.3281 -0.0781 -0.5469 0 183 71
-2.5781 -3.5156 -1.4844 0 135 119
-2.7344 -3.3594 -1.4844 0 135 119
-2.7344 -3.2031 -1.4844 0 135 119
-2.5781 -3.2031 -1.4844 0 135 119
-3.2031 -2.7344 -1.3281 0 143 111
-3.2031 -2.5781 -1.3281 0 143 111
-2.8906 -3.0469 -1.4844 0 135 119
-3.0469 -2.8906 -1.3281 0 143 111
-2.7344 -2.8906 -1.4844 0 135 119
-2.5781 -2.8906 -1.4844 0 135 119
-3.0469 -2.7344 -1.4844 0 135 119
-2.8906 -2.7344 -1.4844 0 135 119
-3.0469 -2.7344 -1.3281 0 143 111
-3.0469 -2.5781 -1.3281 0 143 111
-2.7344 -2.7344 -1.4844 0 135 119
-2.5781 -2.7344 -1.4844 0 135 119
-2.5781 -2.5781 -1.4844 0 135 119
-2.7344 -2.7344 -1.3281 0 143 111
-1.9531 -4.1406 -1.6406 0 127 127
-2.1094 -3.9844 -1.6406 0 127 127
-1.9531 -3.9844 -1.6406 0 127 127
-1.9531 -3.8281 -1.6406 0 127 127
-2.1094 -3.8281 -1.4844 0 135 119
-1.9531 -3.8281 -1.4844 0 135 119
-1.6406 -4.1406 -1.7969 0 119 135
-1.7969 -4.1406 -1.6406 0 127 127
-1.4844 -4.1406 -1.7969 0 119 135
-1.3281 -4.1406 -1.7969 0 119 135
-1.3281 -4.2969 -1.6406 0 127 127
-1.4844 -4.1406 -1.6406 0 127 127
-1.3281 -4.1406 -1.6406 0 127 127
-1.7969 -3.9844 -1.6406 0 127 127
-1.7969 -3.8281 -1.6406 0 127 127
-1.6406 -3.8281 -1.6406 0 127 127
-1.4844 -3.8281 -1.6406 0 127 127
-1.3281 -3.8281 -1.6406 0 127 127
-1.6406 -4.1406 -1.4844 0 135 119
-1.4844 -4.1406 -1.4844 0 135 119
-1.6406 -3.9844 -1.4844 0 135 119
-0.7031 -4.6094 -1.7969 0 119 135
-0.7031 -4.4531 -1.7969 0 119 135
-0.5469 -4.6094 -1.7969 0 119 135
-0.3906 -4.6094 -1.7969 0 119 135
-0.5469 -4.4531 -1.7969 0 119 135
-0.3906 -4.4531 -1.7969 0 119 135
-0.2344 -4.6094 -1.7969 0 119 135
-0.0781 -4.6094 -1.7969 0 119 135
-0.2344 -4.4531 -1.7969 0 119 135
-0.0781 -4.4531 -1.7969 0 119 135
-0.0781 -4.4531 -1.6406 0 127 127
-1.1719 -4.2969 -1.7969 0 119 135
-1.1719 -4.1406 -1.7969 0 119 135
-1.0156 -4.1406 -1.7969 0 119 135
-1.1719 -4.2969 -1.6406 0 127 127
-0.8594 -4.2969 -1.7969 0 119 135
-0.7031 -4.1406 -1.7969 0 119 135
-1.1719 -3.9844 -1.6406 0 127 127
-1.1719 -3.8281 -1.6406 0 127 127
-1.0156 -3.8281 -1.6406 0 127 127
-0.8594 -3.9844 -1.6406 0 127 127
-0.7031 -3.9844 -1.6406 0 127 127
-0.8594 -3.8281 -1.6406 0 127 127
-0.5469 -4.2969 -1.7969 0 119 135
-0.3906 -4.2969 -1.7969 0 119 135
-0.3906 -4.1406 -1.7969 0 119 135
-0.2344 -4.2969 -1.7969 0 119 135
-0.0781 -4.2969 -1.7969 0 119 135
-0.2344 -4.1406 -1.7969 0 119 135
-0.0781 -4.1406 -1.7969 0 119 135
-0.3906 -3.9844 -1.7969 0 119 135
-0.5469 -3.8281 -1.6406 0 127 127
-0.2344 -3.8281 -1.6406 0 127 127
-0.0781 -3.8281 -1.6406 0 127 127
-2.4219 -3.6719 -1.6406 0 127 127
-2.1094 -3.6719 -1.6406 0 127 127
-1.9531 -3.6719 -1.6406 0 127 127
-2.1094 -3.3594 -1.6406 0 127 127
-1.9531 -3.3594 -1.6406 0 127 127
-2.4219 -3.5156 -1.4844 0 135 119
-2.2656 -3.3594 -1.4844 0 135 119
-2.4219 -3.2031 -1.4844 0 135 119
-2.2656 -3.2031 -1.4844 0 135 119
-2.1094 -3.3594 -1.4844 0 135 119
-1.7969 -3.6719 -1.6406 0 127 127
-1.7969 -3.5156 -1.6406 0 127 127
-1.6406 -3.5156 -1.6406 0 127 127
-1.4844 -3.5156 -1.6406 0 127 127
-1.3281 -3.5156 -1.6406 0 127 127
-1.4844 -3.3594 -1.6406 0 127 127
-1.4844 -3.2031 -1.6406 0 127 127
-1.3281 -3.2031 -1.6406 0 127 127
-1.7969 -3.3594 -1.4844 0 135 119
-2.2656 -3.0469 -1.4844 0 135 119
-2.4219 -2.8906 -1.4844 0 135 119
-2.2656 -2.8906 -1.4844 0 135 119
-2.1094 -3.0469 -1.4844 0 135 119
-1.9531 -3.0469 -1.4844 0 135 119
-2.4219 -2.5781 -1.4844 0 135 119
-2.2656 -2.5781 -1.4844 0 135 119
-2.1094 -2.5781 -1.4844 0 135 119
-1.9531 -2.5781 -1.4844 0 135 119
-1.7969 -3.0469 -1.4844 0 135 119
-1.6406 -3.0469 -1.4844 0 135 119
-1.4844 -3.0469 -1.4844 0 135 119
-1.7969 -2.7344 -1.4844 0 135 119
-1.6406 -2.7344 -1.4844 0 135 119
-1.7969 -2.5781 -1.4844 0 135 119
-1.6406 -2.5781 -1.4844 0 135 119
-1.4844 -2.7344 -1.4844 0 135 119
-1.3281 -2.7344 -1.4844 0 135 119
-1.4844 -2.5781 -1.4844 0 135 119
-1.3281 -2.5781 -1.4844 0 135 119
-1.1719 -3.5156 -1.6406 0 127 127
-1.0156 -3.5156 -1.6406 0 127 127
-0.8594 -3.6719 -1.6406 0 127 127
-0.7031 -3.5156 -1.6406 0 127 127
-1.1719 -3.2031 -1.6406 0 127 127
-1.0156 -3.2031 -1.4844 0 135 119
-0.5469 -3.5156 -1.6406 0 127 127
-0.3906 -3.3594 -1.6406 0 127 127
-0.5469 -3.2031 -1.6406 0 127 127
-0.2344 -3.3594 -1.6406 0 127 127
-0.0781 -3.3594 -1.6406 0 127 127
-1.0156 -2.8906 -1.6406 0 127 127
-0.8594 -3.0469 -1.4844 0 135 119
-0.7031 -3.0469 -1.4844 0 135 119
-1.1719 -2.7344 -1.4844 0 135 119
-1.0156 -2.7344 -1.4844 0 135 119
-1.1719 -2.5781 -1.4844 0 135 119
-0.8594 -2.7344 -1.4844 0 135 119
-0.7031 -2.7344 -1.4844 0 135 119
-0.8594 -2.5781 -1.4844 0 135 119
-0.7031 -2.5781 -1.4844 0 135 119
-0.5469 -3.0469 -1.6406 0 127 127
-0.5469 -3.0469 -1.4844 0 135 119
-0.3906 -3.0469 -1.4844 0 135 119
-0.2344 -3.0469 -1.4844 0 135 119
-0.2344 -2.8906 -1.4844 0 135 119
-0.0781 -2.8906 -1.4844 0 135 119
-0.5469 -2.5781 -1.4844 0 135 119
-0.3906 -2.5781 -1.4844 0 135 119
-3.5156 -2.2656 -1.3281 0 143 111
-3.3594 -2.4219 -1.3281 0 143 111
-3.3594 -2.2656 -1.3281 0 143 111
-3.3594 -2.1094 -1.3281 0 143 111
-3.2031 -2.1094 -1.3281 0 143 111
-3.3594 -1.9531 -1.3281 0 143 111
-3.2031 -1.9531 -1.3281 0 143 111
-2.8906 -2.4219 -1.4844 0 135 119
-3.0469 -2.2656 -1.3281 0 143 111
-2.8906 -2.2656 -1.3281 0 143 111
-2.7344 -2.4219 -1.4844 0 135 119
-2.5781 -2.4219 -1.4844 0 135 119
-2.7344 -2.2656 -1.3281 0 143 111
-3.0469 -2.1094 -1.3281 0 143 111
-2.8906 -1.9531 -1.3281 0 143 111
-2.5781 -2.1094 -1.3281 0 143 111
-2.7344 -1.9531 -1.3281 0 143 111
-2.5781 -1.9531 -1.3281 0 143 111
-3.5156 -1.6406 -1.3281 0 143 111
-3.3594 -1.7969 -1.3281 0 143 111
-3.2031 -1.7969 -1.3281 0 143 111
-3.3594 -1.6406 -1.3281 0 143 111
-3.2031 -1.6406 -1.3281 0 143 111
-3.3594 -1.4844 -1.3281 0 143 111
-3.2031 -1.4844 -1.3281 0 143 111
-3.3594 -1.3281 -1.3281 0 143 111
-3.2031 -1.3281 -1.3281 0 143 111
-3.0469 -1.7969 -1.3281 0 143 111
-2.8906 -1.7969 -1.3281 0 143 111
-3.0469 -1.6406 -1.3281 0 143 111
-2.8906 -1.6406 -1.3281 0 143 111
-2.7344 -1.7969 -1.3281 0 143 111
-2.5781 -1.7969 -1.3281 0 143 111
-2.7344 -1.6406 -1.3281 0 143 111
-2.5781 -1.6406 -1.3281 0 143 111
-3.0469 -1.4844 -1.3281 0 143 111
-2.8906 -1.4844 -1.3281 0 143 111
-3.0469 -1.3281 -1.3281 0 143 111
-2.8906 -1.3281 -1.3281 0 143 111
-2.7344 -1.4844 -1.3281 0 143 111
-2.5781 -1.4844 -1.3281 0 143 111
-2.5781 -1.3281 -1.3281 0 143 111
-3.2031 -1.1719 -1.3281 0 143 111
-3.2031 -0.8594 -1.3281 0 143 111
-3.2031 -0.7031 -1.3281 0 143 111
-3.0469 -1.1719 -1.3281 0 143 111
-2.8906 -1.1719 -1.3281 0 143 111
-3.0469 -1.0156 -1.3281 0 143 111
-2.8906 -1.0156 -1.3281 0 143 111
-2.7344 -1.1719 -1.3281 0 143 111
-2.5781 -1.1719 -1.3281 0 143 111
-2.7344 -1.0156 -1.3281 0 143 111
-2.5781 -1.0156 -1.3281 0 143 111
-3.0469 -0.8594 -1.3281 0 143 111
-2.8906 -0.8594 -1.3281 0 143 111
-3.0469 -0.7031 -1.3281 0 143 111
-2.8906 -0.7031 -1.3281 0 143 111
-2.7344 -0.8594 -1.3281 0 143 111
-2.5781 -0.8594 -1.3281 0 143 111
-2.7344 -0.7031 -1.3281 0 143 111
-3.2031 -0.3906 -1.3281 0 143 111
-3.0469 -0.5469 -1.3281 0 143 111
-3.8281 -1.6406 -1.1719 0 151 103
-3.9844 -1.4844 -1.1719 0 151 103
-3.8281 -1.4844 -1.1719 0 151 103
-3.8281 -1.4844 -1.0156 0 159 95
-3.9844 -1.3281 -1.0156 0 159 95
-3.6719 -2.1094 -1.1719 0 151 103
-3.5156 -2.1094 -1.1719 0 151 103
-3.6719 -1.9531 -1.1719 0 151 103
-3.6719 -1.7969 -1.1719 0 151 103
-3.6719 -1.6406 -1.1719 0 151 103
-3.5156 -1.4844 -1.1719 0 151 103
-3.9844 -1.1719 -1.1719 0 151 103
-3.9844 -1.1719 -1.0156 0 159 95
-3.9844 -1.0156 -1.0156 0 159 95
-4.1406 -0.8594 -1.0156 0 159 95
-4.1406 -0.7031 -1.0156 0 159 95
-3.9844 -0.8594 -1.0156 0 159 95
-4.1406 -0.5469 -1.0156 0 159 95
-4.2969 -0.3906 -1.0156 0 159 95
-4.1406 -0.3906 -1.0156 0 159 95
-3.9844 -0.3906 -1.0156 0 159 95
-4.2969 -0.2344 -1.0156 0 159 95
-4.1406 -0.0781 -1.0156 0 159 95
-3.9844 -0.2344 -1.0156 0 159 95
-3.8281 -0.2344 -1.0156 0 159 95
-3.9844 -0.0781 -1.0156 0 159 95
-3.8281 -0.0781 -1.0156 0 159 95
-4.2969 -0.0781 -0.8594 0 167 87
-3.5156 -1.1719 -1.1719 0 151 103
-3.3594 -1.1719 -1.1719 0 151 103
-3.2031 -1.1719 -1.1719 0 151 103
-3.3594 -1.0156 -1.1719 0 151 103
-3.5156 -0.7031 -1.1719 0 151 103
-3.3594 -0.8594 -1.1719 0 151 103
-3.3594 -0.7031 -1.1719 0 151 103
-3.0469 -0.7031 -1.1719 0 151 103
-3.5156 -0.3906 -1.1719 0 151 103
-3.3594 -0.5469 -1.1719 0 151 103
-3.2031 -0.5469 -1.1719 0 151 103
-3.3594 -0.3906 -1.1719 0 151 103
-3.2031 -0.3906 -1.1719 0 151 103
-3.2031 -0.2344 -1.1719 0 151 103
-3.3594 -0.0781 -1.1719 0 151 103
-3.2031 -0.0781 -1.1719 0 151 103
-2.4219 -2.4219 -1.4844 0 135 119
-2.2656 -2.4219 -1.4844 0 135 119
-2.4219 -2.2656 -1.4844 0 135 119
-2.2656 -2.2656 -1.4844 0 135 119
-2.1094 -2.4219 -1.4844 0 135 119
-1.9531 -2.4219 -1.4844 0 135 119
-2.1094 -2.2656 -1.4844 0 135 119
-1.9531 -2.2656 -1.4844 0 135 119
-2.4219 -2.1094 -1.4844 0 135 119
-2.2656 -2.1094 -1.4844 0 135 119
-2.4219 -1.9531 -1.3281 0 143 111
-2.2656 -1.9531 -1.3281 0 143 111
-2.1094 -2.1094 -1.4844 0 135 119
-1.9531 -2.1094 -1.4844 0 135 119
-2.1094 -1.9531 -1.4844 0 135 119
-1.9531 -1.9531 -1.4844 0 135 119
-2.1094 -1.9531 -1.3281 0 143 111
-1.7969 -2.4219 -1.4844 0 135 119
-1.6406 -2.4219 -1.4844 0 135 119
-1.7969 -2.2656 -1.4844 0 135 119
-1.6406 -2.2656 -1.4844 0 135 119
-1.4844 -2.4219 -1.4844 0 135 119
-1.3281 -2.4219 -1.4844 0 135 119
-1.4844 -2.2656 -1.4844 0 135 119
-1.3281 -2.2656 -1.4844 0 135 119
-1.7969 -2.1094 -1.4844 0 135 119
-1.6406 -2.1094 -1.4844 0 135 119
-1.7969 -1.9531 -1.4844 0 135 119
-1.6406 -1.9531 -1.4844 0 135 119
-1.4844 -2.1094 -1.4844 0 135 119
-1.3281 -2.1094 -1.4844 0 135 119
-1.4844 -1.9531 -1.4844 0 135 119
-1.3281 -1.9531 -1.4844 0 135 119
-2.2656 -1.6406 -1.4844 0 135 119
-2.4219 -1.7969 -1.3281 0 143 111
-2.4219 -1.6406 -1.3281 0 143 111
-2.2656 -1.6406 -1.3281 0 143 111
-2.1094 -1.6406 -1.4844 0 135 119
-1.9531 -1.6406 -1.4844 0 135 119
-2.2656 -1.4844 -1.3281 0 143 111
-2.4219 -1.3281 -1.3281 0 143 111
-2.2656 -1.3281 -1.3281 0 143 111
-2.1094 -1.3281 -1.4844 0 135 119
-1.9531 -1.3281 -1.4844 0 135 119
-1.7969 -1.6406 -1.4844 0 135 119
-1.6406 -1.6406 -1.4844 0 135 119
-1.4844 -1.7969 -1.4844 0 135 119
-1.4844 -1.6406 -1.4844 0 135 119
-1.3281 -1.6406 -1.4844 0 135 119
-1.7969 -1.4844 -1.4844 0 135 119
-1.6406 -1.4844 -1.4844 0 135 119
-1.4844 -1.4844 -1.4844 0 135 119
-1.1719 -2.4219 -1.4844 0 135 119
-1.0156 -2.4219 -1.4844 0 135 119
-0.8594 -2.4219 -1.4844 0 135 119
-0.7031 -2.4219 -1.4844 0 135 119
-0.8594 -2.2656 -1.4844 0 135 119
-0.7031 -2.2656 -1.4844 0 135 119
-1.1719 -2.1094 -1.4844 0 135 119
-1.0156 -2.1094 -1.4844 0 135 119
-1.1719 -1.9531 -1.4844 0 135 119
-1.0156 -1.9531 -1.4844 0 135 119
-0.7031 -2.1094 -1.4844 0 135 119
-0.8594 -1.9531 -1.4844 0 135 119
-0.7031 -1.9531 -1.4844 0 135 119
-0.5469 -2.4219 -1.4844 0 135 119
-0.3906 -2.4219 -1.4844 0 135 119
-0.5469 -2.2656 -1.4844 0 135 119
-1.1719 -1.7969 -1.4844 0 135 119
-1.0156 -1.7969 -1.4844 0 135 119
-0.8594 -1.7969 -1.4844 0 135 119
-0.7031 -1.7969 -1.4844 0 135 119
-2.4219 -1.0156 -1.3281 0 143 111
-0.3906 -1.1719 -0.3906 0 191 63
-0.5469 -1.0156 -0.3906 0 191 63
-0.5469 -0.7031 -0.3906 0 191 63
-0.5469 -0.5469 -0.3906 0 191 63
-19.6094 -6.3281 5.2344 223 31 0
-19.9219 -6.0156 5.0781 215 39 0
-19.7656 -6.0156 5.2344 223 31 0
-19.6094 -5.7031 5.3906 231 23 0
-19.4531 -5.5469 5.2344 223 31 0
-19.7656 -5.0781 5.0781 215 39 0
-18.9844 -4.7656 5.0781 215 39 0
-18.2031 -2.1094 5.2344 223 31 0
-18.5156 -1.9531 5.3906 231 23 0
-18.5156 -1.4844 5.2344 223 31 0
-18.3594 -1.6406 5.3906 231 23 0
-18.3594 -1.4844 5.3906 231 23 0
-18.5156 -1.0156 5.2344 223 31 0
-18.2031 -1.1719 5.5469 239 15 0
-18.2031 -0.8594 5.5469 239 15 0
-18.2031 -0.7031 5.5469 239 15 0
-17.8906 -0.7031 5.2344 223 31 0
-17.5781 -1.1719 5.3906 231 23 0
-17.8906 -0.3906 5.2344 223 31 0
-17.5781 -0.2344 5.0781 215 39 0
-17.5781 -0.0781 5.2344 223 31 0
-17.4219 -2.2656 5.0781 215 39 0
-17.4219 -2.1094 5.0781 215 39 0
-17.4219 -1.9531 5.0781 215 39 0
-17.2656 -1.6406 5.2344 223 31 0
-17.2656 -1.4844 5.0781 215 39 0
-17.2656 -1.3281 5.0781 215 39 0
-16.9531 -1.3281 5.0781 215 39 0
-17.2656 -1.1719 5.0781 215 39 0
-17.4219 -1.0156 5.0781 215 39 0
-17.2656 -1.0156 5.0781 215 39 0
-17.2656 -0.8594 5.0781 215 39 0
-17.4219 -0.0781 5.0781 215 39 0
-17.1094 -0.2344 5.0781 215 39 0
0.0781 -18.9844 -3.6719 0 23 231
0.2344 -18.5156 -3.6719 0 23 231
0.0781 -18.0469 -3.6719 0 23 231
0.5469 -18.0469 -3.5156 0 31 223
0.2344 -17.5781 -3.6719 0 23 231
0.7031 -17.5781 -3.5156 0 31 223
1.3281 -17.8906 -3.6719 0 23 231
0.8594 -17.2656 -3.5156 0 31 223
1.1719 -16.9531 -3.3594 0 39 215
0.3906 -16.7969 -3.5156 0 31 223
0.7031 -16.3281 -3.3594 0 39 215
1.4844 -17.4219 -3.5156 0 31 223
1.7969 -16.9531 -3.5156 0 31 223
0.8594 -15.7031 -3.2031 0 47 207
1.0156 -15.2344 -3.2031 0 47 207
1.7969 -16.1719 -3.3594 0 39 215
1.9531 -15.7031 -3.2031 0 47 207
2.1094 -15.2344 -3.2031 0 47 207
0.0781 -14.7656 -3.2031 0 47 207
1.1719 -14.7656 -3.0469 0 55 199
0.2344 -14.2969 -2.8906 0 63 191
0.3906 -14.2969 -3.0469 0 55 199
0.5469 -13.8281 -3.0469 0 55 199
0.3906 -13.8281 -2.8906 0 63 191
2.2656 -14.4531 -3.0469 0 55 199
1.3281 -13.9844 -2.8906 0 63 191
2.4219 -13.9844 -2.8906 0 63 191
0.0781 -13.5156 -2.8906 0 63 191
0.0781 -13.2031 -2.7344 0 71 183
0.5469 -13.3594 -2.7344 0 71 183
0.7031 -13.2031 -2.8906 0 63 191
0.2344 -13.0469 -2.7344 0 71 183
0.0781 -12.5781 -2.7344 0 71 183
0.3906 -12.7344 -2.7344 0 71 183
0.7031 -13.0469 -2.7344 0 71 183
0.7031 -12.8906 -2.7344 0 71 183
0.8594 -12.5781 -2.7344 0 71 183
1.4844 -13.6719 -2.8906 0 63 191
1.6406 -13.2031 -2.8906 0 63 191
2.4219 -13.6719 -2.8906 0 63 191
1.7969 -12.8906 -2.7344 0 71 183
1.4844 -12.5781 -2.7344 0 71 183
1.7969 -12.5781 -2.7344 0 71 183
2.5781 -13.3594 -2.8906 0 63 191
2.7344 -12.8906 -2.7344 0 71 183
0.0781 -12.4219 -2.7344 0 71 183
0.0781 -12.2656 -2.5781 0 79 175
0.5469 -12.2656 -2.5781 0 79 175
0.2344 -11.9531 -2.5781 0 79 175
0.8594 -12.4219 -2.7344 0 71 183
1.0156 -12.2656 -2.5781 0 79 175
0.7031 -11.9531 -2.5781 0 79 175
1.0156 -12.1094 -2.7344 0 71 183
1.1719 -11.9531 -2.5781 0 79 175
0.2344 -11.7969 -2.5781 0 79 175
0.3906 -11.4844 -2.5781 0 79 175
0.8594 -11.6406 -2.5781 0 79 175
1.1719 -11.7969 -2.5781 0 79 175
1.4844 -12.2656 -2.7344 0 71 183
1.6406 -11.9531 -2.7344 0 71 183
1.9531 -12.2656 -2.7344 0 71 183
1.7969 -11.6406 -2.5781 0 79 175
2.1094 -11.6406 -2.5781 0 79 175
2.1094 -11.4844 -2.5781 0 79 175
1.9531 -11.3281 -2.5781 0 79 175
1.9531 -11.1719 -2.5781 0 79 175
2.7344 -12.4219 -2.7344 0 71 183
2.8906 -12.1094 -2.5781 0 79 175
2.8906 -11.9531 -2.5781 0 79 175
3.0469 -11.6406 -2.5781 0 79 175
3.2031 -11.3281 -2.5781 0 79 175
2.7344 -11.1719 -2.5781 0 79 175
0.0781 -11.9531 -2.4219 0 87 167
0.2344 -11.6406 -2.4219 0 87 167
0.3906 -11.3281 -2.4219 0 87 167
1.3281 -11.6406 -2.4219 0 87 167
1.3281 -11.3281 -2.4219 0 87 167
0.3906 -11.0156 -2.4219 0 87 167
0.5469 -11.0156 -2.2656 0 95 159
0.0781 -10.8594 -2.4219 0 87 167
0.2344 -10.7031 -2.4219 0 87 167
0.5469 -10.8594 -2.4219 0 87 167
0.8594 -11.0156 -2.4219 0 87 167
1.0156 -10.8594 -2.4219 0 87 167
0.3906 -10.3906 -2.2656 0 95 159
0.3906 -10.0781 -2.2656 0 95 159
0.7031 -10.3906 -2.2656 0 95 159
1.1719 -10.5469 -2.2656 0 95 159
1.1719 -10.2344 -2.2656 0 95 159
0.8594 -10.0781 -2.1094 0 103 151
1.4844 -11.0156 -2.4219 0 87 167
1.6406 -10.8594 -2.4219 0 87 167
2.2656 -11.1719 -2.4219 0 87 167
2.1094 -10.8594 -2.4219 0 87 167
2.4219 -10.8594 -2.4219 0 87 167
2.2656 -10.7031 -2.4219 0 87 167
2.4219 -10.7031 -2.4219 0 87 167
1.3281 -10.0781 -2.2656 0 95 159
1.7969 -10.2344 -2.2656 0 95 159
2.2656 -10.3906 -2.4219 0 87 167
2.4219 -10.2344 -2.4219 0 87 167
2.4219 -10.0781 -2.2656 0 95 159
2.7344 -11.0156 -2.4219 0 87 167
2.8906 -10.7031 -2.4219 0 87 167
3.2031 -11.0156 -2.4219 0 87 167
3.2031 -10.7031 -2.4219 0 87 167
3.0469 -10.5469 -2.4219 0 87 167
3.0469 -10.2344 -2.4219 0 87 167
3.3594 -10.3906 -2.4219 0 87 167
3.3594 -10.2344 -2.2656 0 95 159
3.2031 -10.0781 -2.2656 0 95 159
3.8281 -10.2344 -2.4219 0 87 167
3.8281 -10.0781 -2.2656 0 95 159
1.0156 -9.9219 -2.1094 0 103 151
1.1719 -9.4531 -2.1094 0 103 151
1.4844 -9.7656 -2.1094 0 103 151
1.9531 -9.9219 -2.2656 0 95 159
2.1094 -9.6094 -2.1094 0 103 151
1.7969 -9.2969 -2.1094 0 103 151
1.7969 -8.9844 -2.1094 0 103 151
2.1094 -9.2969 -2.1094 0 103 151
2.2656 -9.1406 -2.1094 0 103 151
1.9531 -8.8281 -1.9531 0 111 143
2.2656 -8.9844 -2.1094 0 103 151
2.4219 -8.8281 -1.9531 0 111 143
2.4219 -8.6719 -1.9531 0 111 143
2.5781 -9.7656 -2.2656 0 95 159
2.5781 -9.4531 -2.2656 0 95 159
3.2031 -9.7656 -2.2656 0 95 159
3.5156 -9.9219 -2.2656 0 95 159
3.5156 -9.7656 -2.2656 0 95 159
3.3594 -9.6094 -2.2656 0 95 159
3.3594 -9.4531 -2.2656 0 95 159
2.7344 -9.2969 -2.2656 0 95 159
2.7344 -9.1406 -2.1094 0 103 151
2.8906 -8.9844 -2.1094 0 103 151
3.3594 -9.1406 -2.2656 0 95 159
3.5156 -8.9844 -2.1094 0 103 151
3.5156 -8.8281 -2.1094 0 103 151
3.9844 -9.7656 -2.2656 0 95 159
3.9844 -9.6094 -2.2656 0 95 159
4.1406 -9.2969 -2.2656 0 95 159
4.1406 -9.1406 -2.2656 0 95 159
4.1406 -8.9844 -2.1094 0 103 151
4.2969 -8.8281 -2.1094 0 103 151
2.5781 -8.5156 -1.9531 0 111 143
2.8906 -8.6719 -2.1094 0 103 151
3.0469 -8.5156 -2.1094 0 103 151
2.5781 -8.3594 -1.9531 0 111 143
3.0469 -8.3594 -2.1094 0 103 151
3.5156 -8.6719 -2.1094 0 103 151
3.2031 -8.3594 -2.1094 0 103 151
3.2031 -8.2031 -1.9531 0 111 143
3.6719 -8.3594 -2.1094 0 103 151
3.6719 -8.2031 -2.1094 0 103 151
3.2031 -8.0469 -1.9531 0 111 143
3.3594 -7.8906 -1.9531 0 111 143
4.2969 -8.6719 -2.1094 0 103 151
4.2969 -8.5156 -2.1094 0 103 151
3.8281 -8.2031 -1.9531 0 111 143
4.4531 -8.3594 -2.1094 0 103 151
4.4531 -8.2031 -2.1094 0 103 151
3.8281 -8.0469 -1.9531 0 111 143
3.8281 -7.8906 -1.9531 0 111 143
3.9844 -7.7344 -1.9531 0 111 143
3.9844 -7.5781 -1.9531 0 111 143
4.4531 -7.8906 -1.9531 0 111 143
4.4531 -7.7344 -1.9531 0 111 143
4.6094 -7.5781 -1.9531 0 111 143
3.9844 -7.4219 -1.9531 0 111 143
4.1406 -7.2656 -1.9531 0 111 143
4.1406 -7.1094 -1.9531 0 111 143
4.6094 -7.4219 -1.9531 0 111 143
4.6094 -7.2656 -1.9531 0 111 143
4.6094 -7.1094 -1.9531 0 111 143
4.7656 -7.1094 -1.9531 0 111 143
4.7656 -6.9531 -1.7969 0 119 135
4.7656 -6.7969 -1.7969 0 119 135
4.7656 -6.6406 -1.7969 0 119 135
4.9219 -6.4844 -1.7969 0 119 135
0.2344 -4.6094 -1.7969 0 119 135
0.0781 -4.4531 -1.7969 0 119 135
0.2344 -4.4531 -1.7969 0 119 135
0.3906 -4.4531 -1.7969 0 119 135
0.5469 -4.4531 -1.7969 0 119 135
0.7031 -4.4531 -1.7969 0 119 135
0.8594 -4.4531 -1.7969 0 119 135
1.0156 -4.4531 -1.7969 0 119 135
0.0781 -4.1406 -1.7969 0 119 135
0.2344 -4.1406 -1.7969 0 119 135
0.5469 -4.2969 -1.7969 0 119 135
0.3906 -4.1406 -1.7969 0 119 135
0.3906 -3.9844 -1.7969 0 119 135
0.5469 -3.9844 -1.7969 0 119 135
0.8594 -4.2969 -1.7969 0 119 135
0.8594 -4.1406 -1.7969 0 119 135
1.0156 -4.2969 -1.7969 0 119 135
1.1719 -4.2969 -1.7969 0 119 135
1.1719 -4.1406 -1.7969 0 119 135
0.7031 -3.8281 -1.7969 0 119 135
0.8594 -3.8281 -1.6406 0 127 127
1.0156 -3.8281 -1.7969 0 119 135
1.3281 -4.1406 -1.7969 0 119 135
1.4844 -4.1406 -1.7969 0 119 135
1.3281 -3.9844 -1.7969 0 119 135
1.4844 -3.9844 -1.7969 0 119 135
1.4844 -3.8281 -1.7969 0 119 135
1.6406 -3.9844 -1.7969 0 119 135
1.6406 -3.8281 -1.7969 0 119 135
1.7969 -3.8281 -1.7969 0 119 135
1.6406 -3.8281 -1.6406 0 127 127
1.7969 -3.8281 -1.6406 0 127 127
0.0781 -3.6719 -1.6406 0 127 127
0.2344 -3.6719 -1.6406 0 127 127
0.2344 -3.5156 -1.6406 0 127 127
0.3906 -3.6719 -1.6406 0 127 127
0.3906 -3.5156 -1.6406 0 127 127
0.5469 -3.5156 -1.6406 0 127 127
0.0781 -3.3594 -1.6406 0 127 127
0.0781 -3.2031 -1.6406 0 127 127
0.2344 -3.2031 -1.6406 0 127 127
0.3906 -3.2031 -1.6406 0 127 127
0.8594 -3.6719 -1.6406 0 127 127
0.7031 -3.5156 -1.6406 0 127 127
1.0156 -3.6719 -1.7969 0 119 135
1.1719 -3.6719 -1.7969 0 119 135
0.7031 -3.3594 -1.6406 0 127 127
0.8594 -3.3594 -1.6406 0 127 127
1.0156 -3.2031 -1.6406 0 127 127
0.3906 -3.0469 -1.6406 0 127 127
0.0781 -2.8906 -1.4844 0 135 119
0.5469 -3.0469 -1.4844 0 135 119
1.3281 -3.5156 -1.6406 0 127 127
1.4844 -3.5156 -1.6406 0 127 127
1.7969 -3.6719 -1.7969 0 119 135
1.7969 -3.6719 -1.6406 0 127 127
1.4844 -3.3594 -1.6406 0 127 127
2.1094 -3.6719 -1.7969 0 119 135
1.9531 -3.6719 -1.6406 0 127 127
1.9531 -3.5156 -1.6406 0 127 127
2.1094 -3.5156 -1.6406 0 127 127
2.2656 -3.5156 -1.6406 0 127 127
2.1094 -3.3594 -1.6406 0 127 127
2.2656 -3.3594 -1.6406 0 127 127
2.4219 -3.2031 -1.6406 0 127 127
-19.9219 0.3906 2.4219 79 175 0
-19.6094 0.3906 2.4219 79 175 0
-19.7656 0.7031 2.4219 79 175 0
-17.2656 0.0781 1.6406 39 215 0
-17.4219 0.2344 1.6406 39 215 0
-19.9219 0.8594 2.5781 87 167 0
-18.3594 1.0156 4.9219 207 47 0
-18.0469 0.8594 4.9219 207 47 0
-17.5781 0.8594 4.7656 199 55 0
-16.3281 0.3906 4.2969 175 79 0
-17.1094 0.2344 4.7656 199 55 0
-17.1094 0.2344 4.9219 207 47 0
-16.4844 0.2344 4.4531 183 71 0
-16.3281 0.0781 4.6094 191 63 0
-16.7969 0.5469 4.4531 183 71 0
-16.7969 0.3906 4.6094 191 63 0
-16.7969 0.2344 4.7656 199 55 0
-16.7969 0.0781 4.9219 207 47 0
-16.6406 0.5469 4.7656 199 55 0
-17.1094 0.7031 4.6094 191 63 0
-16.7969 0.8594 4.6094 191 63 0
-16.3281 0.7031 4.4531 183 71 0
-16.0156 0.0781 4.2969 175 79 0
-16.0156 0.2344 4.2969 175 79 0
-16.1719 0.0781 4.6094 191 63 0
-17.1094 1.7969 4.6094 191 63 0
-17.2656 1.4844 4.9219 207 47 0
-16.6406 1.4844 4.9219 207 47 0
-16.3281 1.3281 4.9219 207 47 0
-17.1094 1.9531 4.7656 199 55 0
-16.7969 3.0469 4.9219 207 47 0
-12.5781 2.4219 1.3281 23 231 0
-12.2656 2.5781 1.3281 23 231 0
-11.9531 2.7344 1.3281 23 231 0
-11.9531 3.0469 1.4844 31 223 0
-12.4219 2.7344 1.6406 39 215 0
-12.2656 2.8906 1.6406 39 215 0
-11.6406 2.8906 1.3281 23 231 0
-11.4844 3.0469 1.3281 23 231 0
-11.7969 3.2031 1.4844 31 223 0
-11.3281 3.2031 1.3281 23 231 0
-11.1719 3.3594 1.3281 23 231 0
-10.8594 3.3594 1.3281 23 231 0
-10.7031 3.5156 1.3281 23 231 0
-6.9531 0.0781 -0.3906 0 191 63
-7.1094 0.2344 -0.3906 0 191 63
-7.4219 0.0781 -0.2344 0 199 55
-7.2656 0.0781 -0.2344 0 199 55
-7.2656 0.2344 -0.2344 0 199 55
-7.1094 0.0781 -0.0781 0 207 47
-7.1094 0.2344 -0.0781 0 207 47
-7.2656 0.3906 -0.2344 0 199 55
-7.2656 0.3906 -0.0781 0 207 47
-7.2656 0.5469 -0.0781 0 207 47
-7.1094 0.5469 -0.2344 0 199 55
-6.9531 0.5469 -0.2344 0 199 55
-7.1094 0.3906 -0.0781 0 207 47
-7.1094 0.5469 -0.0781 0 207 47
-6.6406 0.0781 -0.5469 0 183 71
-6.6406 0.2344 -0.5469 0 183 71
-6.6406 0.0781 -0.3906 0 191 63
-6.6406 0.2344 -0.3906 0 191 63
-6.3281 0.2344 -0.5469 0 183 71
-6.4844 0.0781 -0.3906 0 191 63
-6.6406 0.3906 -0.5469 0 183 71
-6.6406 0.3906 -0.3906 0 191 63
-6.6406 0.5469 -0.3906 0 191 63
-6.3281 0.3906 -0.5469 0 183 71
-6.3281 0.5469 -0.5469 0 183 71
-6.4844 0.3906 -0.3906 0 191 63
-6.4844 0.5469 -0.3906 0 191 63
-6.3281 0.5469 -0.3906 0 191 63
-6.6406 0.2344 -0.2344 0 199 55
-6.6406 0.3906 -0.2344 0 199 55
-6.6406 0.5469 -0.2344 0 199 55
-7.1094 0.7031 -0.2344 0 199 55
-6.9531 0.7031 -0.2344 0 199 55
-7.1094 0.8594 -0.2344 0 199 55
-6.9531 0.8594 -0.2344 0 199 55
-7.1094 0.7031 -0.0781 0 207 47
-7.1094 0.8594 -0.0781 0 207 47
-6.9531 1.0156 -0.2344 0 199 55
-6.9531 1.1719 -0.2344 0 199 55
-7.1094 1.0156 -0.0781 0 207 47
-7.1094 1.1719 -0.0781 0 207 47
-6.9531 1.1719 -0.0781 0 207 47
-6.6406 0.7031 -0.3906 0 191 63
-6.3281 0.7031 -0.5469 0 183 71
-6.3281 0.8594 -0.5469 0 183 71
-6.3281 0.7031 -0.3906 0 191 63
-6.4844 0.8594 -0.3906 0 191 63
-6.3281 0.8594 -0.3906 0 191 63
-6.4844 1.0156 -0.3906 0 191 63
-6.3281 1.0156 -0.3906 0 191 63
-6.4844 1.1719 -0.3906 0 191 63
-6.7969 0.7031 -0.2344 0 199 55
-6.7969 0.8594 -0.2344 0 199 55
-6.4844 0.8594 -0.2344 0 199 55
-6.7969 1.0156 -0.2344 0 199 55
-6.6406 1.0156 -0.2344 0 199 55
-6.6406 1.1719 -0.2344 0 199 55
-6.4844 1.0156 -0.2344 0 199 55
-6.3281 1.0156 -0.2344 0 199 55
-6.1719 1.1719 -0.3906 0 191 63
-6.9531 1.3281 -0.0781 0 207 47
-6.9531 1.4844 -0.0781 0 207 47
-6.9531 1.6406 -0.0781 0 207 47
-6.6406 1.4844 -0.3906 0 191 63
-6.4844 1.3281 -0.3906 0 191 63
-6.3281 1.7969 -0.3906 0 191 63
-6.7969 1.3281 -0.2344 0 199 55
-6.6406 1.3281 -0.2344 0 199 55
-6.6406 1.4844 -0.2344 0 199 55
-6.7969 1.4844 -0.0781 0 207 47
-6.6406 1.4844 -0.0781 0 207 47
-6.3281 1.4844 -0.2344 0 199 55
-6.7969 1.6406 -0.0781 0 207 47
-6.6406 1.6406 -0.0781 0 207 47
-6.7969 1.7969 -0.0781 0 207 47
-6.4844 1.6406 -0.2344 0 199 55
-6.3281 1.6406 -0.2344 0 199 55
-6.4844 1.7969 -0.2344 0 199 55
-6.3281 1.7969 -0.2344 0 199 55
-6.4844 1.6406 -0.0781 0 207 47
-6.4844 1.7969 -0.0781 0 207 47
-6.6406 1.9531 -0.0781 0 207 47
-6.4844 1.9531 -0.2344 0 199 55
-6.3281 1.9531 -0.2344 0 199 55
-6.4844 2.1094 -0.2344 0 199 55
-6.4844 1.9531 -0.0781 0 207 47
-6.4844 2.1094 -0.0781 0 207 47
-6.3281 2.2656 -0.2344 0 199 55
-6.3281 2.4219 -0.2344 0 199 55
-6.4844 2.2656 -0.0781 0 207 47
-6.3281 2.2656 -0.0781 0 207 47
-6.3281 2.4219 -0.0781 0 207 47
-6.1719 1.3281 -0.3906 0 191 63
-6.1719 1.4844 -0.3906 0 191 63
-6.1719 1.6406 -0.3906 0 191 63
-6.1719 1.7969 -0.3906 0 191 63
-6.1719 1.3281 -0.2344 0 199 55
-6.1719 1.9531 -0.3906 0 191 63
-6.1719 2.1094 -0.0781 0 207 47
-6.1719 2.2656 -0.2344 0 199 55
-6.1719 2.4219 -0.2344 0 199 55
-6.1719 2.2656 -0.0781 0 207 47
-6.1719 2.4219 -0.0781 0 207 47
-6.3281 2.5781 -0.2344 0 199 55
-6.3281 2.5781 -0.0781 0 207 47
-6.3281 2.7344 -0.0781 0 207 47
-6.3281 2.8906 -0.0781 0 207 47
-6.1719 2.5781 -0.2344 0 199 55
-6.1719 2.7344 -0.2344 0 199 55
-6.0156 2.7344 -0.2344 0 199 55
-6.1719 2.5781 -0.0781 0 207 47
-6.1719 2.7344 -0.0781 0 207 47
-6.0156 2.8906 -0.2344 0 199 55
-6.0156 3.0469 -0.2344 0 199 55
-6.1719 2.8906 -0.0781 0 207 47
-6.0156 2.8906 -0.0781 0 207 47
-6.1719 3.0469 -0.0781 0 207 47
-6.0156 3.0469 -0.0781 0 207 47
-6.0156 3.2031 -0.2344 0 199 55
-6.0156 3.3594 -0.0781 0 207 47
-4.1406 0.0781 -1.0156 0 159 95
-3.8281 0.0781 -1.0156 0 159 95
-3.9844 0.2344 -1.0156 0 159 95
-3.8281 0.2344 -1.0156 0 159 95
-3.9844 0.5469 -1.0156 0 159 95
-3.8281 0.5469 -1.0156 0 159 95
-4.1406 0.0781 -0.8594 0 167 87
-3.9844 0.0781 -0.8594 0 167 87
-3.9844 0.2344 -0.8594 0 167 87
-3.9844 0.3906 -0.8594 0 167 87
-3.9844 0.5469 -0.8594 0 167 87
-3.9844 0.7031 -1.0156 0 159 95
-3.9844 0.8594 -1.0156 0 159 95
-3.8281 0.8594 -1.0156 0 159 95
-3.8281 1.0156 -1.0156 0 159 95
-3.8281 1.1719 -1.0156 0 159 95
-3.9844 0.8594 -0.8594 0 167 87
-3.8281 0.8594 -0.8594 0 167 87
-3.9844 1.0156 -0.8594 0 167 87
-3.8281 1.0156 -0.8594 0 167 87
-3.6719 0.5469 -1.0156 0 159 95
-3.6719 0.5469 -0.8594 0 167 87
-3.6719 0.7031 -1.0156 0 159 95
-3.6719 0.8594 -1.0156 0 159 95
-3.8281 1.3281 -0.8594 0 167 87
-1.9531 1.3281 -0.0781 0 207 47
-1.9531 1.4844 -0.0781 0 207 47
-1.9531 1.6406 -0.0781 0 207 47
-1.7969 1.3281 -0.0781 0 207 47
-1.7969 1.4844 -0.0781 0 207 47
-1.7969 1.6406 -0.0781 0 207 47
-1.7969 1.7969 -0.0781 0 207 47
-1.7969 1.9531 -0.0781 0 207 47
-1.6406 1.9531 -0.0781 0 207 47
-1.7969 2.1094 -0.0781 0 207 47
-1.6406 2.1094 -0.0781 0 207 47
-1.7969 2.2656 -0.0781 0 207 47
-1.6406 2.2656 -0.0781 0 207 47
-1.7969 2.4219 -0.0781 0 207 47
-1.6406 2.4219 -0.0781 0 207 47
-1.4844 2.4219 -0.0781 0 207 47
-1.6406 2.5781 -0.0781 0 207 47
-1.6406 2.7344 -0.0781 0 207 47
-1.4844 2.5781 -0.0781 0 207 47
-1.4844 2.7344 -0.0781 0 207 47
-1.4844 2.8906 -0.0781 0 207 47
-1.4844 3.0469 -0.0781 0 207 47
-1.9531 1.7969 0.0781 0 215 39
-2.1094 1.9531 0.0781 0 215 39
-2.1094 2.1094 0.0781 0 215 39
-1.7969 2.2656 0.0781 0 215 39
-1.6406 2.2656 0.0781 0 215 39
-1.6406 2.4219 0.0781 0 215 39
-1.6406 2.5781 0.0781 0 215 39
-1.6406 2.7344 0.0781 0 215 39
-1.4844 2.7344 0.0781 0 215 39
-19.6094 1.1719 5.5469 239 15 0
-18.9844 0.5469 5.7031 247 7 0
-18.2031 0.5469 5.0781 215 39 0
