ply
format ascii 1.0
comment OctoMap 3D export - Moose Robot
comment Resolution: 0.100 m
element vertex 1116
property float x
property float y
property float z
property uchar red
property uchar green
property uchar blue
end_header
-7.7344 -18.8281 3.6719 53 201 0
-8.8281 -19.7656 3.9844 68 186 0
-9.2969 -19.1406 4.1406 75 179 0
-8.6719 -19.7656 4.1406 75 179 0
-8.6719 -19.6094 4.1406 75 179 0
-8.5156 -19.4531 4.1406 75 179 0
-8.2031 -19.2969 3.9844 68 186 0
-8.2031 -19.1406 3.9844 68 186 0
-8.2031 -18.9844 3.8281 61 193 0
-8.0469 -19.1406 3.9844 68 186 0
-7.5781 -19.1406 3.8281 61 193 0
-7.7344 -18.8281 3.8281 61 193 0
-7.7344 -18.9844 3.9844 68 186 0
-7.7344 -18.0469 3.8281 61 193 0
-7.4219 -19.1406 3.6719 53 201 0
-7.1094 -19.1406 3.6719 53 201 0
-6.4844 -18.8281 3.6719 53 201 0
-5.7031 -19.1406 3.6719 53 201 0
-6.1719 -18.9844 3.6719 53 201 0
-6.0156 -18.9844 3.6719 53 201 0
-5.5469 -19.2969 3.6719 53 201 0
-5.2344 -19.2969 3.6719 53 201 0
-6.6406 -18.6719 3.6719 53 201 0
-6.6406 -18.2031 3.6719 53 201 0
-6.6406 -17.7344 3.6719 53 201 0
-6.6406 -17.5781 3.6719 53 201 0
-7.2656 -19.1406 3.8281 61 193 0
-6.9531 -19.1406 3.9844 68 186 0
-7.4219 -18.8281 3.8281 61 193 0
-7.4219 -18.9844 3.9844 68 186 0
-7.4219 -18.9844 4.1406 75 179 0
-6.9531 -18.9844 4.1406 75 179 0
-6.7969 -19.1406 3.8281 61 193 0
-6.6406 -18.9844 3.8281 61 193 0
-6.6406 -18.9844 3.9844 68 186 0
-6.3281 -18.8281 3.8281 61 193 0
-6.3281 -18.9844 3.9844 68 186 0
-5.5469 -19.4531 3.8281 61 193 0
-5.0781 -19.4531 3.8281 61 193 0
-6.0156 -19.1406 3.8281 61 193 0
-5.8594 -19.1406 3.8281 61 193 0
-5.7031 -19.1406 3.8281 61 193 0
-6.1719 -18.9844 3.8281 61 193 0
-6.0156 -18.9844 3.8281 61 193 0
-6.1719 -18.8281 3.8281 61 193 0
-6.0156 -18.9844 3.9844 68 186 0
-5.7031 -18.9844 3.8281 61 193 0
-5.3906 -19.2969 3.8281 61 193 0
-5.5469 -19.1406 3.8281 61 193 0
-6.9531 -18.5156 3.8281 61 193 0
-6.4844 -18.6719 3.8281 61 193 0
-6.4844 -18.5156 3.8281 61 193 0
-6.7969 -18.3594 3.8281 61 193 0
-6.6406 -18.2031 3.8281 61 193 0
-6.3281 -18.2031 3.8281 61 193 0
-6.7969 -17.8906 3.8281 61 193 0
-6.6406 -17.8906 3.8281 61 193 0
-6.6406 -17.4219 3.6719 53 201 0
-3.8281 -19.7656 3.6719 53 201 0
-4.2969 -19.6094 3.6719 53 201 0
-3.9844 -19.6094 3.6719 53 201 0
-3.5156 -19.9219 3.6719 53 201 0
-2.1094 -5.0781 -1.0156 0 93 161
-1.9531 -5.0781 -1.0156 0 93 161
-2.1094 -5.0781 -0.8594 0 100 154
-1.9531 -5.0781 -0.8594 0 100 154
-1.6406 -5.2344 -1.0156 0 93 161
-1.7969 -5.0781 -1.0156 0 93 161
-1.6406 -5.0781 -1.0156 0 93 161
-1.4844 -5.2344 -1.0156 0 93 161
-1.3281 -5.2344 -1.0156 0 93 161
-1.4844 -5.0781 -1.0156 0 93 161
-1.3281 -5.0781 -1.0156 0 93 161
-1.7969 -5.2344 -0.8594 0 100 154
-1.6406 -5.2344 -0.8594 0 100 154
-1.7969 -5.0781 -0.8594 0 100 154
-1.6406 -5.0781 -0.8594 0 100 154
-1.3281 -5.2344 -0.8594 0 100 154
-1.4844 -5.0781 -0.8594 0 100 154
-1.3281 -5.0781 -0.8594 0 100 154
-1.1719 -5.3906 -1.0156 0 93 161
-0.8594 -5.3906 -1.0156 0 93 161
-0.7031 -5.3906 -1.0156 0 93 161
-1.1719 -5.2344 -1.0156 0 93 161
-1.0156 -5.2344 -1.0156 0 93 161
-1.1719 -5.0781 -1.0156 0 93 161
-1.0156 -5.0781 -1.0156 0 93 161
-0.8594 -5.2344 -1.0156 0 93 161
-0.7031 -5.2344 -1.0156 0 93 161
-0.8594 -5.0781 -1.0156 0 93 161
-1.1719 -5.3906 -0.8594 0 100 154
-0.7031 -5.3906 -0.8594 0 100 154
-1.1719 -5.2344 -0.8594 0 100 154
-1.0156 -5.2344 -0.8594 0 100 154
-1.1719 -5.0781 -0.8594 0 100 154
-1.0156 -5.0781 -0.8594 0 100 154
-0.8594 -5.2344 -0.8594 0 100 154
-0.7031 -5.2344 -0.8594 0 100 154
-0.7031 -5.0781 -0.8594 0 100 154
-0.5469 -5.3906 -1.0156 0 93 161
-0.3906 -5.3906 -1.0156 0 93 161
-0.2344 -5.5469 -1.0156 0 93 161
-0.2344 -5.3906 -1.0156 0 93 161
-0.0781 -5.3906 -1.0156 0 93 161
-0.5469 -5.2344 -1.0156 0 93 161
-0.3906 -5.2344 -1.0156 0 93 161
-0.2344 -5.2344 -1.0156 0 93 161
-0.0781 -5.2344 -1.0156 0 93 161
-0.5469 -5.3906 -0.8594 0 100 154
-0.3906 -5.3906 -0.8594 0 100 154
-0.2344 -5.3906 -0.8594 0 100 154
-0.0781 -5.3906 -0.8594 0 100 154
-0.5469 -5.2344 -0.8594 0 100 154
-0.3906 -5.2344 -0.8594 0 100 154
-3.8281 -3.8281 -1.0156 0 93 161
-3.3594 -4.4531 -1.0156 0 93 161
-3.2031 -4.6094 -0.8594 0 100 154
-3.3594 -4.4531 -0.8594 0 100 154
-3.2031 -4.4531 -0.8594 0 100 154
-2.8906 -4.6094 -1.0156 0 93 161
-2.7344 -4.4531 -1.0156 0 93 161
-2.5781 -4.4531 -1.0156 0 93 161
-2.8906 -4.7656 -0.8594 0 100 154
-2.5781 -4.7656 -0.8594 0 100 154
-3.0469 -4.6094 -0.8594 0 100 154
-3.0469 -4.4531 -0.8594 0 100 154
-2.8906 -4.4531 -0.8594 0 100 154
-2.7344 -4.6094 -0.8594 0 100 154
-2.5781 -4.6094 -0.8594 0 100 154
-2.7344 -4.4531 -0.8594 0 100 154
-2.5781 -4.4531 -0.8594 0 100 154
-3.5156 -4.1406 -1.0156 0 93 161
-3.3594 -4.2969 -1.0156 0 93 161
-3.3594 -4.1406 -1.0156 0 93 161
-3.6719 -3.9844 -1.0156 0 93 161
-3.5156 -3.9844 -1.0156 0 93 161
-3.6719 -3.8281 -1.0156 0 93 161
-3.5156 -3.8281 -1.0156 0 93 161
-3.2031 -3.9844 -1.0156 0 93 161
-3.3594 -3.8281 -1.0156 0 93 161
-3.2031 -3.8281 -1.0156 0 93 161
-3.5156 -4.2969 -0.8594 0 100 154
-3.5156 -4.1406 -0.8594 0 100 154
-3.2031 -4.2969 -0.8594 0 100 154
-3.2031 -4.1406 -0.8594 0 100 154
-3.5156 -3.8281 -0.8594 0 100 154
-3.2031 -3.8281 -0.8594 0 100 154
-2.8906 -4.2969 -1.0156 0 93 161
-2.8906 -4.1406 -1.0156 0 93 161
-2.7344 -4.2969 -1.0156 0 93 161
-2.5781 -4.2969 -1.0156 0 93 161
-2.7344 -4.1406 -1.0156 0 93 161
-2.5781 -4.1406 -1.0156 0 93 161
-3.0469 -3.9844 -1.0156 0 93 161
-2.8906 -3.9844 -1.0156 0 93 161
-3.0469 -3.8281 -1.0156 0 93 161
-2.8906 -3.8281 -1.0156 0 93 161
-2.7344 -3.9844 -1.0156 0 93 161
-2.5781 -3.9844 -1.0156 0 93 161
-2.7344 -3.8281 -1.0156 0 93 161
-2.5781 -3.8281 -1.0156 0 93 161
-3.0469 -4.2969 -0.8594 0 100 154
-2.8906 -4.2969 -0.8594 0 100 154
-3.0469 -4.1406 -0.8594 0 100 154
-2.5781 -4.2969 -0.8594 0 100 154
-2.7344 -4.1406 -0.8594 0 100 154
-2.5781 -4.1406 -0.8594 0 100 154
-2.7344 -3.9844 -0.8594 0 100 154
-3.9844 -3.6719 -1.0156 0 93 161
-3.8281 -3.6719 -1.0156 0 93 161
-3.9844 -3.5156 -1.0156 0 93 161
-3.8281 -3.5156 -1.0156 0 93 161
-4.1406 -3.2031 -1.0156 0 93 161
-3.9844 -3.3594 -1.0156 0 93 161
-3.8281 -3.3594 -1.0156 0 93 161
-3.9844 -3.2031 -1.0156 0 93 161
-4.1406 -3.0469 -1.0156 0 93 161
-4.1406 -2.8906 -1.0156 0 93 161
-3.8281 -2.8906 -1.0156 0 93 161
-4.2969 -2.7344 -1.0156 0 93 161
-4.1406 -2.7344 -1.0156 0 93 161
-4.2969 -2.5781 -1.0156 0 93 161
-4.1406 -2.5781 -1.0156 0 93 161
-3.9844 -2.7344 -1.0156 0 93 161
-3.9844 -2.5781 -1.0156 0 93 161
-3.8281 -2.5781 -1.0156 0 93 161
-3.9844 -3.0469 -0.8594 0 100 154
-4.1406 -2.7344 -0.8594 0 100 154
-3.6719 -3.6719 -1.0156 0 93 161
-3.5156 -3.6719 -1.0156 0 93 161
-3.5156 -3.5156 -1.0156 0 93 161
-3.3594 -3.6719 -1.0156 0 93 161
-3.2031 -3.6719 -1.0156 0 93 161
-3.3594 -3.5156 -1.0156 0 93 161
-3.2031 -3.5156 -1.0156 0 93 161
-3.6719 -3.3594 -1.0156 0 93 161
-3.5156 -3.3594 -1.0156 0 93 161
-3.6719 -3.2031 -1.0156 0 93 161
-3.5156 -3.2031 -1.0156 0 93 161
-3.3594 -3.3594 -1.0156 0 93 161
-3.2031 -3.3594 -1.0156 0 93 161
-3.3594 -3.2031 -1.0156 0 93 161
-3.2031 -3.2031 -1.0156 0 93 161
-3.6719 -3.5156 -0.8594 0 100 154
-3.0469 -3.6719 -1.0156 0 93 161
-2.8906 -3.6719 -1.0156 0 93 161
-3.0469 -3.5156 -1.0156 0 93 161
-2.8906 -3.5156 -1.0156 0 93 161
-2.7344 -3.6719 -1.0156 0 93 161
-2.5781 -3.6719 -1.0156 0 93 161
-2.7344 -3.5156 -1.0156 0 93 161
-2.5781 -3.5156 -1.0156 0 93 161
-3.0469 -3.3594 -1.0156 0 93 161
-2.8906 -3.3594 -1.0156 0 93 161
-3.0469 -3.2031 -1.0156 0 93 161
-2.8906 -3.2031 -1.0156 0 93 161
-2.7344 -3.3594 -1.0156 0 93 161
-2.5781 -3.3594 -1.0156 0 93 161
-2.7344 -3.2031 -1.0156 0 93 161
-2.5781 -3.2031 -1.0156 0 93 161
-3.0469 -3.6719 -0.8594 0 100 154
-3.6719 -3.0469 -1.0156 0 93 161
-3.5156 -3.0469 -1.0156 0 93 161
-3.6719 -2.8906 -1.0156 0 93 161
-3.5156 -2.8906 -1.0156 0 93 161
-3.3594 -3.0469 -1.0156 0 93 161
-3.2031 -3.0469 -1.0156 0 93 161
-3.3594 -2.8906 -1.0156 0 93 161
-3.6719 -2.7344 -1.0156 0 93 161
-3.5156 -2.7344 -1.0156 0 93 161
-3.6719 -2.5781 -1.0156 0 93 161
-3.5156 -2.5781 -1.0156 0 93 161
-3.3594 -2.7344 -1.0156 0 93 161
-3.2031 -2.7344 -1.0156 0 93 161
-3.2031 -2.5781 -1.0156 0 93 161
-3.0469 -3.0469 -1.0156 0 93 161
-2.8906 -3.0469 -1.0156 0 93 161
-3.0469 -2.8906 -1.0156 0 93 161
-2.8906 -2.8906 -1.0156 0 93 161
-2.5781 -2.8906 -1.1719 0 86 168
-2.7344 -3.0469 -1.0156 0 93 161
-2.5781 -3.0469 -1.0156 0 93 161
-2.7344 -2.8906 -1.0156 0 93 161
-3.0469 -2.5781 -1.1719 0 86 168
-2.8906 -2.5781 -1.1719 0 86 168
-2.8906 -2.7344 -1.0156 0 93 161
-2.8906 -2.5781 -1.0156 0 93 161
-2.7344 -2.7344 -1.1719 0 86 168
-2.7344 -2.5781 -1.1719 0 86 168
-2.7344 -2.7344 -1.0156 0 93 161
-2.2656 -4.9219 -1.0156 0 93 161
-2.4219 -4.7656 -1.0156 0 93 161
-2.1094 -4.9219 -1.0156 0 93 161
-1.9531 -4.9219 -1.0156 0 93 161
-2.1094 -4.7656 -1.0156 0 93 161
-1.9531 -4.7656 -1.0156 0 93 161
-2.4219 -4.6094 -1.0156 0 93 161
-2.2656 -4.6094 -1.0156 0 93 161
-2.4219 -4.4531 -1.0156 0 93 161
-2.2656 -4.4531 -1.0156 0 93 161
-2.1094 -4.6094 -1.0156 0 93 161
-1.9531 -4.6094 -1.0156 0 93 161
-2.1094 -4.4531 -1.0156 0 93 161
-1.9531 -4.4531 -1.0156 0 93 161
-2.2656 -4.9219 -0.8594 0 100 154
-2.4219 -4.7656 -0.8594 0 100 154
-2.2656 -4.7656 -0.8594 0 100 154
-2.1094 -4.9219 -0.8594 0 100 154
-1.9531 -4.9219 -0.8594 0 100 154
-2.1094 -4.7656 -0.8594 0 100 154
-1.9531 -4.7656 -0.8594 0 100 154
-2.4219 -4.6094 -0.8594 0 100 154
-2.2656 -4.6094 -0.8594 0 100 154
-2.4219 -4.4531 -0.8594 0 100 154
-2.2656 -4.4531 -0.8594 0 100 154
-2.1094 -4.6094 -0.8594 0 100 154
-1.9531 -4.6094 -0.8594 0 100 154
-1.7969 -4.9219 -1.0156 0 93 161
-1.6406 -4.9219 -1.0156 0 93 161
-1.7969 -4.7656 -1.0156 0 93 161
-1.6406 -4.7656 -1.0156 0 93 161
-1.4844 -4.9219 -1.0156 0 93 161
-1.3281 -4.9219 -1.0156 0 93 161
-1.4844 -4.7656 -1.0156 0 93 161
-1.3281 -4.7656 -1.0156 0 93 161
-1.7969 -4.6094 -1.0156 0 93 161
-1.6406 -4.6094 -1.0156 0 93 161
-1.7969 -4.4531 -1.0156 0 93 161
-1.6406 -4.4531 -1.0156 0 93 161
-1.4844 -4.6094 -1.0156 0 93 161
-1.7969 -4.9219 -0.8594 0 100 154
-1.6406 -4.9219 -0.8594 0 100 154
-1.7969 -4.7656 -0.8594 0 100 154
-1.6406 -4.7656 -0.8594 0 100 154
-1.4844 -4.9219 -0.8594 0 100 154
-1.3281 -4.9219 -0.8594 0 100 154
-2.4219 -4.2969 -1.0156 0 93 161
-2.2656 -4.2969 -1.0156 0 93 161
-2.4219 -4.1406 -1.0156 0 93 161
-2.2656 -4.1406 -1.0156 0 93 161
-2.1094 -4.2969 -1.0156 0 93 161
-1.9531 -4.2969 -1.0156 0 93 161
-2.1094 -4.1406 -1.0156 0 93 161
-1.9531 -4.1406 -1.0156 0 93 161
-2.4219 -3.9844 -1.0156 0 93 161
-2.2656 -3.9844 -1.0156 0 93 161
-2.4219 -3.8281 -1.0156 0 93 161
-2.2656 -3.8281 -1.0156 0 93 161
-2.1094 -3.9844 -1.0156 0 93 161
-2.1094 -3.8281 -1.0156 0 93 161
-1.7969 -4.2969 -1.0156 0 93 161
-1.1719 -4.9219 -1.0156 0 93 161
-1.0156 -4.9219 -1.0156 0 93 161
-1.1719 -4.7656 -1.0156 0 93 161
-2.4219 -3.6719 -1.0156 0 93 161
-2.2656 -3.6719 -1.0156 0 93 161
-2.4219 -3.5156 -1.0156 0 93 161
-2.2656 -3.5156 -1.0156 0 93 161
-2.4219 -3.3594 -1.0156 0 93 161
-2.7344 -1.3281 -1.3281 0 79 175
-2.8906 -1.1719 -1.3281 0 79 175
-2.8906 -1.0156 -1.3281 0 79 175
-2.5781 -1.1719 -1.3281 0 79 175
-2.7344 -1.0156 -1.3281 0 79 175
-2.5781 -1.0156 -1.3281 0 79 175
-2.8906 -0.8594 -1.3281 0 79 175
-3.0469 -0.7031 -1.3281 0 79 175
-2.7344 -0.8594 -1.3281 0 79 175
-2.7344 -0.7031 -1.3281 0 79 175
-3.2031 -0.2344 -1.3281 0 79 175
-3.3594 -0.0781 -1.3281 0 79 175
-2.8906 -0.3906 -1.3281 0 79 175
-2.7344 -0.5469 -1.3281 0 79 175
-2.7344 -0.3906 -1.3281 0 79 175
-2.8906 -0.2344 -1.3281 0 79 175
-2.8906 -0.0781 -1.3281 0 79 175
-2.5781 -0.2344 -1.3281 0 79 175
-2.7344 -0.0781 -1.3281 0 79 175
-2.5781 -0.0781 -1.3281 0 79 175
-4.2969 -2.4219 -1.0156 0 93 161
-4.1406 -2.4219 -1.0156 0 93 161
-4.2969 -2.2656 -1.0156 0 93 161
-4.1406 -2.2656 -1.0156 0 93 161
-3.9844 -2.4219 -1.0156 0 93 161
-3.8281 -2.4219 -1.0156 0 93 161
-3.8281 -2.2656 -1.0156 0 93 161
-4.2969 -2.1094 -1.0156 0 93 161
-4.1406 -2.1094 -1.0156 0 93 161
-4.2969 -1.9531 -1.0156 0 93 161
-4.1406 -1.9531 -1.0156 0 93 161
-3.8281 -2.1094 -1.0156 0 93 161
-3.8281 -1.9531 -1.0156 0 93 161
-4.2969 -1.7969 -1.0156 0 93 161
-4.1406 -1.7969 -1.0156 0 93 161
-4.2969 -1.6406 -1.0156 0 93 161
-4.1406 -1.6406 -1.0156 0 93 161
-3.8281 -1.7969 -1.0156 0 93 161
-4.2969 -1.4844 -1.0156 0 93 161
-4.1406 -1.4844 -1.0156 0 93 161
-4.2969 -1.3281 -1.0156 0 93 161
-4.1406 -1.3281 -1.0156 0 93 161
-3.8281 -1.4844 -1.0156 0 93 161
-3.6719 -2.4219 -1.0156 0 93 161
-3.5156 -2.4219 -1.0156 0 93 161
-3.6719 -2.2656 -1.0156 0 93 161
-3.5156 -2.2656 -1.0156 0 93 161
-3.2031 -2.2656 -1.1719 0 86 168
-3.3594 -2.4219 -1.0156 0 93 161
-3.2031 -2.4219 -1.0156 0 93 161
-3.6719 -2.1094 -1.0156 0 93 161
-3.5156 -2.1094 -1.0156 0 93 161
-3.6719 -1.9531 -1.0156 0 93 161
-3.5156 -1.9531 -1.0156 0 93 161
-3.2031 -1.9531 -1.1719 0 86 168
-3.3594 -2.1094 -1.0156 0 93 161
-3.3594 -1.9531 -1.0156 0 93 161
-3.0469 -2.4219 -1.1719 0 86 168
-2.8906 -2.4219 -1.1719 0 86 168
-3.0469 -2.2656 -1.1719 0 86 168
-3.0469 -2.4219 -1.0156 0 93 161
-3.0469 -2.2656 -1.0156 0 93 161
-2.7344 -2.2656 -1.1719 0 86 168
-3.0469 -2.1094 -1.1719 0 86 168
-2.8906 -2.1094 -1.1719 0 86 168
-3.0469 -1.9531 -1.1719 0 86 168
-2.8906 -1.9531 -1.1719 0 86 168
-3.0469 -2.1094 -1.0156 0 93 161
-3.0469 -1.9531 -1.0156 0 93 161
-3.6719 -1.7969 -1.0156 0 93 161
-3.5156 -1.7969 -1.0156 0 93 161
-3.6719 -1.6406 -1.0156 0 93 161
-3.5156 -1.6406 -1.0156 0 93 161
-3.3594 -1.7969 -1.1719 0 86 168
-3.2031 -1.7969 -1.1719 0 86 168
-3.3594 -1.6406 -1.1719 0 86 168
-3.2031 -1.6406 -1.1719 0 86 168
-3.5156 -1.4844 -1.1719 0 86 168
-3.6719 -1.4844 -1.0156 0 93 161
-3.5156 -1.4844 -1.0156 0 93 161
-3.6719 -1.3281 -1.0156 0 93 161
-3.2031 -1.4844 -1.1719 0 86 168
-3.3594 -1.3281 -1.1719 0 86 168
-3.2031 -1.3281 -1.1719 0 86 168
-3.3594 -1.3281 -1.0156 0 93 161
-3.0469 -1.7969 -1.1719 0 86 168
-2.8906 -1.7969 -1.1719 0 86 168
-3.0469 -1.6406 -1.1719 0 86 168
-2.8906 -1.6406 -1.1719 0 86 168
-2.8906 -1.4844 -1.1719 0 86 168
-3.0469 -1.3281 -1.1719 0 86 168
-2.8906 -1.3281 -1.1719 0 86 168
-2.7344 -1.3281 -1.1719 0 86 168
-4.1406 -1.1719 -1.1719 0 86 168
-4.2969 -1.0156 -1.1719 0 86 168
-4.1406 -1.0156 -1.1719 0 86 168
-4.2969 -1.1719 -1.0156 0 93 161
-4.1406 -1.1719 -1.0156 0 93 161
-4.2969 -1.0156 -1.0156 0 93 161
-4.1406 -1.0156 -1.0156 0 93 161
-4.1406 -0.8594 -1.1719 0 86 168
-4.2969 -0.7031 -1.1719 0 86 168
-4.1406 -0.7031 -1.1719 0 86 168
-4.2969 -0.8594 -1.0156 0 93 161
-4.1406 -0.8594 -1.0156 0 93 161
-4.1406 -0.7031 -1.0156 0 93 161
-3.8281 -0.8594 -1.1719 0 86 168
-3.9844 -0.7031 -1.1719 0 86 168
-3.9844 -0.7031 -1.0156 0 93 161
-4.1406 -0.5469 -1.1719 0 86 168
-4.1406 -0.5469 -1.0156 0 93 161
-3.9844 -0.5469 -1.1719 0 86 168
-3.8281 -0.5469 -1.1719 0 86 168
-3.9844 -0.3906 -1.1719 0 86 168
-3.8281 -0.3906 -1.1719 0 86 168
-3.9844 -0.3906 -1.0156 0 93 161
-3.9844 -0.2344 -1.1719 0 86 168
-3.8281 -0.2344 -1.1719 0 86 168
-3.8281 -0.0781 -1.1719 0 86 168
-3.6719 -1.1719 -1.1719 0 86 168
-3.5156 -1.1719 -1.1719 0 86 168
-3.6719 -1.0156 -1.1719 0 86 168
-3.6719 -1.1719 -1.0156 0 93 161
-3.5156 -1.1719 -1.0156 0 93 161
-3.5156 -1.0156 -1.0156 0 93 161
-3.3594 -1.1719 -1.1719 0 86 168
-3.2031 -1.1719 -1.1719 0 86 168
-3.3594 -1.0156 -1.1719 0 86 168
-3.2031 -1.0156 -1.1719 0 86 168
-3.6719 -0.8594 -1.1719 0 86 168
-3.5156 -0.8594 -1.1719 0 86 168
-3.6719 -0.7031 -1.1719 0 86 168
-3.5156 -0.7031 -1.1719 0 86 168
-3.3594 -0.8594 -1.1719 0 86 168
-3.2031 -0.8594 -1.1719 0 86 168
-3.3594 -0.7031 -1.1719 0 86 168
-3.0469 -1.1719 -1.1719 0 86 168
-2.7344 -1.1719 -1.1719 0 86 168
-2.8906 -0.8594 -1.1719 0 86 168
-3.0469 -0.7031 -1.1719 0 86 168
-2.8906 -0.7031 -1.1719 0 86 168
-3.6719 -0.5469 -1.1719 0 86 168
-3.5156 -0.5469 -1.1719 0 86 168
-3.6719 -0.3906 -1.1719 0 86 168
-3.5156 -0.3906 -1.1719 0 86 168
-3.3594 -0.5469 -1.1719 0 86 168
-3.2031 -0.5469 -1.1719 0 86 168
-3.3594 -0.3906 -1.1719 0 86 168
-3.2031 -0.3906 -1.1719 0 86 168
-3.5156 -0.2344 -1.1719 0 86 168
-3.5156 -0.0781 -1.1719 0 86 168
-3.3594 -0.2344 -1.1719 0 86 168
-3.3594 -0.0781 -1.1719 0 86 168
-3.0469 -0.5469 -1.1719 0 86 168
-2.7344 -0.3906 -1.1719 0 86 168
-2.8906 -0.0781 -1.1719 0 86 168
-2.7344 -0.2344 -1.1719 0 86 168
-0.7031 -0.3906 -0.2344 0 129 125
-0.8594 -0.2344 -0.2344 0 129 125
-0.7031 -0.2344 -0.2344 0 129 125
-0.7031 -0.0781 -0.2344 0 129 125
-0.5469 -0.0781 -0.2344 0 129 125
-6.0156 -19.2969 7.4219 226 28 0
-6.1719 -19.1406 7.4219 226 28 0
-6.0156 -18.8281 7.4219 226 28 0
-6.3281 -18.2031 7.1094 211 43 0
-6.3281 -18.2031 7.2656 219 35 0
-6.9531 -17.5781 7.1094 211 43 0
-7.1094 -18.0469 7.4219 226 28 0
-6.6406 -18.0469 7.1094 211 43 0
-6.6406 -17.5781 6.9531 204 50 0
-6.7969 -17.8906 7.4219 226 28 0
-6.4844 -18.0469 7.2656 219 35 0
-6.7969 -17.7344 7.2656 219 35 0
-6.4844 -17.7344 7.2656 219 35 0
-6.3281 -17.7344 7.4219 226 28 0
-6.3281 -17.5781 7.4219 226 28 0
-6.1719 -18.3594 7.1094 211 43 0
-6.1719 -18.5156 7.4219 226 28 0
-6.1719 -18.2031 7.4219 226 28 0
-5.8594 -18.3594 7.4219 226 28 0
-6.0156 -17.8906 7.2656 219 35 0
-6.0156 -18.0469 7.4219 226 28 0
-6.1719 -17.8906 7.4219 226 28 0
-5.7031 -18.0469 7.4219 226 28 0
-5.8594 -17.8906 7.4219 226 28 0
-6.1719 -17.7344 7.2656 219 35 0
-6.1719 -17.5781 7.2656 219 35 0
-6.0156 -17.5781 7.2656 219 35 0
-6.3281 -17.2656 6.9531 204 50 0
-6.3281 -16.9531 6.9531 204 50 0
-6.3281 -17.1094 7.1094 211 43 0
-6.7969 -17.2656 7.2656 219 35 0
-6.6406 -17.2656 7.2656 219 35 0
-6.6406 -17.4219 7.4219 226 28 0
-6.7969 -17.2656 7.4219 226 28 0
-6.4844 -17.2656 7.2656 219 35 0
-6.7969 -17.1094 7.2656 219 35 0
-6.7969 -16.9531 7.2656 219 35 0
-6.3281 -17.1094 7.2656 219 35 0
-6.3281 -16.7969 6.9531 204 50 0
-6.1719 -17.1094 7.1094 211 43 0
-9.1406 -18.9844 8.0469 255 0 0
-8.9844 -18.9844 7.8906 247 7 0
-8.9844 -18.9844 8.0469 255 0 0
-8.2031 -19.1406 7.7344 240 14 0
-8.2031 -19.1406 8.0469 255 0 0
-8.2031 -18.8281 7.8906 247 7 0
-7.8906 -19.1406 7.7344 240 14 0
-7.8906 -19.1406 7.8906 247 7 0
-8.5156 -18.6719 7.5781 233 21 0
-8.2031 -18.5156 7.5781 233 21 0
-8.5156 -18.2031 7.7344 240 14 0
-8.3594 -18.3594 7.7344 240 14 0
-8.2031 -18.2031 7.7344 240 14 0
-8.3594 -18.3594 8.0469 255 0 0
-6.3281 -19.2969 7.7344 240 14 0
-6.1719 -19.4531 7.7344 240 14 0
-5.7031 -19.4531 7.5781 233 21 0
-5.7031 -19.6094 7.7344 240 14 0
-5.8594 -19.4531 7.7344 240 14 0
-5.7031 -19.2969 7.5781 233 21 0
-5.8594 -19.1406 7.5781 233 21 0
-7.4219 -18.3594 7.5781 233 21 0
-6.9531 -17.7344 7.5781 233 21 0
-6.6406 -17.8906 7.5781 233 21 0
-6.0156 -18.3594 7.5781 233 21 0
-4.1406 -19.4531 7.2656 219 35 0
-3.8281 -19.4531 7.2656 219 35 0
-3.9844 -19.4531 7.4219 226 28 0
-3.9844 -19.2969 7.4219 226 28 0
-3.3594 -19.7656 7.2656 219 35 0
-3.6719 -19.4531 7.2656 219 35 0
-3.6719 -19.6094 7.4219 226 28 0
-3.6719 -19.4531 7.4219 226 28 0
-3.5156 -19.4531 7.4219 226 28 0
-3.3594 -19.6094 7.4219 226 28 0
-3.2031 -19.4531 7.4219 226 28 0
-3.0469 -19.6094 7.4219 226 28 0
-3.6719 -19.2969 7.4219 226 28 0
0.0781 -5.3906 -1.0156 0 93 161
0.2344 -5.3906 -1.0156 0 93 161
0.3906 -5.3906 -1.0156 0 93 161
0.5469 -5.3906 -1.0156 0 93 161
0.0781 -5.2344 -1.0156 0 93 161
0.2344 -5.2344 -1.0156 0 93 161
0.3906 -5.2344 -1.0156 0 93 161
0.5469 -5.2344 -1.0156 0 93 161
0.0781 -5.3906 -0.8594 0 100 154
0.2344 -5.3906 -0.8594 0 100 154
0.5469 -5.3906 -0.8594 0 100 154
0.5469 -5.2344 -0.8594 0 100 154
0.7031 -5.5469 -1.0156 0 93 161
0.7031 -5.3906 -1.0156 0 93 161
0.8594 -5.3906 -1.0156 0 93 161
1.0156 -5.3906 -1.0156 0 93 161
1.1719 -5.3906 -1.0156 0 93 161
0.7031 -5.2344 -1.0156 0 93 161
0.8594 -5.0781 -1.0156 0 93 161
1.0156 -5.2344 -1.0156 0 93 161
1.1719 -5.2344 -1.0156 0 93 161
1.3281 -5.3906 -1.0156 0 93 161
1.4844 -5.3906 -1.0156 0 93 161
1.3281 -5.2344 -1.0156 0 93 161
1.4844 -5.2344 -1.0156 0 93 161
1.4844 -5.0781 -1.0156 0 93 161
1.6406 -5.0781 -1.0156 0 93 161
1.7969 -5.0781 -1.0156 0 93 161
2.1094 -5.0781 -1.0156 0 93 161
2.2656 -5.0781 -1.0156 0 93 161
1.9531 -4.9219 -1.0156 0 93 161
2.4219 -4.9219 -1.0156 0 93 161
2.5781 -4.9219 -1.0156 0 93 161
2.7344 -4.7656 -1.0156 0 93 161
-3.2031 0.2344 -1.3281 0 79 175
-3.3594 0.3906 -1.3281 0 79 175
-3.3594 0.5469 -1.3281 0 79 175
-3.2031 0.5469 -1.3281 0 79 175
-3.0469 0.0781 -1.3281 0 79 175
-2.8906 0.0781 -1.3281 0 79 175
-3.0469 0.2344 -1.3281 0 79 175
-2.7344 0.0781 -1.3281 0 79 175
-2.7344 0.2344 -1.3281 0 79 175
-2.8906 0.3906 -1.3281 0 79 175
-3.0469 0.5469 -1.3281 0 79 175
-2.8906 0.5469 -1.3281 0 79 175
-2.7344 0.3906 -1.3281 0 79 175
-3.3594 0.7031 -1.3281 0 79 175
-3.2031 0.7031 -1.3281 0 79 175
-3.3594 0.8594 -1.3281 0 79 175
-3.2031 0.8594 -1.3281 0 79 175
-3.5156 1.0156 -1.3281 0 79 175
-3.3594 1.0156 -1.3281 0 79 175
-3.2031 1.0156 -1.3281 0 79 175
-3.3594 1.1719 -1.3281 0 79 175
-3.2031 1.1719 -1.3281 0 79 175
-3.0469 0.7031 -1.3281 0 79 175
-2.8906 0.7031 -1.3281 0 79 175
-3.0469 0.8594 -1.3281 0 79 175
-2.8906 0.8594 -1.3281 0 79 175
-2.7344 0.7031 -1.3281 0 79 175
-2.7344 0.8594 -1.3281 0 79 175
-3.0469 1.0156 -1.3281 0 79 175
-2.8906 1.0156 -1.3281 0 79 175
-3.0469 1.1719 -1.3281 0 79 175
-2.8906 1.1719 -1.3281 0 79 175
-2.5781 1.1719 -1.3281 0 79 175
-3.5156 1.3281 -1.3281 0 79 175
-3.3594 1.3281 -1.3281 0 79 175
-3.2031 1.3281 -1.3281 0 79 175
-3.3594 1.4844 -1.3281 0 79 175
-3.2031 1.4844 -1.3281 0 79 175
-3.3594 1.6406 -1.3281 0 79 175
-3.2031 1.6406 -1.3281 0 79 175
-3.3594 1.7969 -1.3281 0 79 175
-3.2031 1.7969 -1.3281 0 79 175
-3.0469 1.3281 -1.3281 0 79 175
-2.8906 1.3281 -1.3281 0 79 175
-3.0469 1.4844 -1.3281 0 79 175
-2.8906 1.4844 -1.3281 0 79 175
-2.7344 1.4844 -1.4844 0 71 183
-2.7344 1.3281 -1.3281 0 79 175
-3.0469 1.6406 -1.4844 0 71 183
-2.8906 1.7969 -1.4844 0 71 183
-3.0469 1.6406 -1.3281 0 79 175
-3.0469 1.7969 -1.3281 0 79 175
-2.5781 1.6406 -1.4844 0 71 183
-2.7344 1.7969 -1.4844 0 71 183
-2.5781 1.7969 -1.4844 0 71 183
-2.7344 1.6406 -1.3281 0 79 175
-3.3594 1.9531 -1.3281 0 79 175
-3.2031 1.9531 -1.3281 0 79 175
-3.2031 2.1094 -1.3281 0 79 175
-2.8906 2.1094 -1.4844 0 71 183
-3.0469 1.9531 -1.3281 0 79 175
-3.0469 2.1094 -1.3281 0 79 175
-2.7344 1.9531 -1.4844 0 71 183
-2.5781 1.9531 -1.4844 0 71 183
-2.7344 2.1094 -1.4844 0 71 183
-2.5781 2.1094 -1.4844 0 71 183
-2.7344 1.9531 -1.3281 0 79 175
-3.0469 2.2656 -1.4844 0 71 183
-2.8906 2.2656 -1.4844 0 71 183
-2.8906 2.4219 -1.4844 0 71 183
-2.8906 2.2656 -1.3281 0 79 175
-2.8906 2.4219 -1.3281 0 79 175
-2.7344 2.2656 -1.4844 0 71 183
-2.5781 2.2656 -1.4844 0 71 183
-3.9844 0.0781 -1.1719 0 86 168
-3.8281 0.2344 -1.1719 0 86 168
-3.8281 0.3906 -1.1719 0 86 168
-3.8281 0.5469 -1.1719 0 86 168
-3.6719 0.0781 -1.1719 0 86 168
-3.5156 0.0781 -1.1719 0 86 168
-3.6719 0.2344 -1.1719 0 86 168
-3.5156 0.2344 -1.1719 0 86 168
-3.3594 0.0781 -1.1719 0 86 168
-3.3594 0.2344 -1.1719 0 86 168
-3.6719 0.3906 -1.1719 0 86 168
-3.5156 0.3906 -1.1719 0 86 168
-3.6719 0.5469 -1.1719 0 86 168
-3.3594 0.3906 -1.1719 0 86 168
-3.2031 0.3906 -1.1719 0 86 168
-3.3594 0.5469 -1.1719 0 86 168
-3.6719 0.7031 -1.1719 0 86 168
-3.5156 0.7031 -1.1719 0 86 168
-3.6719 0.8594 -1.1719 0 86 168
-3.5156 0.8594 -1.1719 0 86 168
-3.3594 0.7031 -1.1719 0 86 168
-3.2031 0.7031 -1.1719 0 86 168
-3.6719 1.0156 -1.1719 0 86 168
-3.5156 1.0156 -1.1719 0 86 168
-3.5156 1.1719 -1.1719 0 86 168
-2.4219 2.1094 -1.4844 0 71 183
-2.4219 2.4219 -1.4844 0 71 183
-0.3906 0.0781 -0.2344 0 129 125
-0.2344 0.3906 -0.2344 0 129 125
-0.0781 0.3906 -0.2344 0 129 125
-0.0781 0.5469 -0.2344 0 129 125
-2.8906 2.5781 -1.4844 0 71 183
-2.8906 2.7344 -1.4844 0 71 183
-2.7344 2.5781 -1.4844 0 71 183
-2.5781 2.5781 -1.4844 0 71 183
-2.7344 2.7344 -1.4844 0 71 183
-2.7344 2.8906 -1.4844 0 71 183
-2.5781 2.8906 -1.4844 0 71 183
-2.5781 3.0469 -1.4844 0 71 183
-2.7344 3.2031 -1.4844 0 71 183
-2.5781 3.2031 -1.4844 0 71 183
-2.5781 3.3594 -1.4844 0 71 183
-2.4219 3.3594 -1.6406 0 64 190
-2.2656 3.3594 -1.6406 0 64 190
-2.4219 3.5156 -1.6406 0 64 190
-2.2656 3.5156 -1.6406 0 64 190
-2.1094 3.5156 -1.6406 0 64 190
-1.9531 3.5156 -1.6406 0 64 190
-2.1094 3.6719 -1.6406 0 64 190
-1.9531 3.6719 -1.6406 0 64 190
-2.4219 3.2031 -1.4844 0 71 183
-2.4219 3.3594 -1.4844 0 71 183
-2.2656 3.5156 -1.4844 0 71 183
-2.2656 3.8281 -1.6406 0 64 190
-2.1094 3.8281 -1.6406 0 64 190
-1.9531 3.8281 -1.6406 0 64 190
-1.9531 3.9844 -1.6406 0 64 190
-1.7969 3.8281 -1.6406 0 64 190
-1.7969 3.9844 -1.6406 0 64 190
-19.6094 10.5469 -1.7969 0 57 197
-19.4531 10.8594 -1.6406 0 64 190
-19.7656 11.0156 -1.7969 0 57 197
-18.9844 10.7031 -1.7969 0 57 197
-19.1406 11.1719 -1.7969 0 57 197
-18.8281 11.1719 -1.7969 0 57 197
-18.9844 11.0156 -1.6406 0 64 190
-18.3594 10.7031 -1.7969 0 57 197
-18.6719 11.1719 -1.7969 0 57 197
-18.2031 11.1719 -1.7969 0 57 197
-19.6094 11.6406 -1.9531 0 50 204
-18.9844 11.6406 -1.9531 0 50 204
-19.6094 11.4844 -1.7969 0 57 197
-19.1406 11.4844 -1.7969 0 57 197
-18.3594 11.6406 -1.9531 0 50 204
-17.8906 11.7969 -1.9531 0 50 204
-18.5156 11.4844 -1.7969 0 57 197
-18.3594 11.3281 -1.7969 0 57 197
-17.7344 11.3281 -1.7969 0 57 197
-17.5781 11.3281 -1.7969 0 57 197
-18.0469 11.6406 -1.7969 0 57 197
-17.7344 11.6406 -1.7969 0 57 197
-17.2656 11.1719 -1.6406 0 64 190
-16.4844 11.1719 -1.6406 0 64 190
-16.1719 10.7031 -1.7969 0 57 197
-15.8594 11.1719 -1.6406 0 64 190
-15.5469 11.1719 -1.6406 0 64 190
-17.4219 11.7969 -1.9531 0 50 204
-17.2656 11.7969 -1.9531 0 50 204
-16.9531 11.7969 -1.9531 0 50 204
-16.7969 11.7969 -1.9531 0 50 204
-16.3281 11.7969 -1.9531 0 50 204
-17.2656 11.3281 -1.7969 0 57 197
-17.1094 11.3281 -1.7969 0 57 197
-17.4219 11.6406 -1.7969 0 57 197
-17.2656 11.6406 -1.7969 0 57 197
-16.9531 11.6406 -1.7969 0 57 197
-16.7969 11.4844 -1.7969 0 57 197
-16.7969 11.3281 -1.6406 0 64 190
-16.3281 11.4844 -1.7969 0 57 197
-16.3281 11.3281 -1.6406 0 64 190
-16.7969 11.7969 -1.7969 0 57 197
-16.6406 11.7969 -1.7969 0 57 197
-16.4844 11.7969 -1.7969 0 57 197
-16.3281 11.7969 -1.7969 0 57 197
-16.7969 12.2656 -1.7969 0 57 197
-16.4844 12.2656 -1.7969 0 57 197
-16.0156 11.9531 -1.9531 0 50 204
-15.8594 11.9531 -1.9531 0 50 204
-15.5469 11.9531 -1.9531 0 50 204
-15.2344 11.9531 -1.9531 0 50 204
-15.0781 11.9531 -1.9531 0 50 204
-15.8594 11.4844 -1.7969 0 57 197
-15.8594 11.3281 -1.6406 0 64 190
-15.8594 11.7969 -1.7969 0 57 197
-15.3906 11.4844 -1.7969 0 57 197
-15.5469 11.4844 -1.6406 0 64 190
-15.2344 11.4844 -1.7969 0 57 197
-15.0781 11.4844 -1.7969 0 57 197
-15.0781 11.3281 -1.6406 0 64 190
-15.0781 11.6406 -1.7969 0 57 197
-15.0781 11.6406 -1.6406 0 64 190
-16.0156 12.4219 -1.7969 0 57 197
-15.5469 11.9531 -1.7969 0 57 197
-15.2344 11.9531 -1.7969 0 57 197
-15.5469 12.4219 -1.7969 0 57 197
-15.2344 12.4219 -1.7969 0 57 197
-15.0781 12.5781 -1.9531 0 50 204
-14.7656 12.1094 -1.9531 0 50 204
-14.4531 12.1094 -1.9531 0 50 204
-14.1406 11.9531 -1.9531 0 50 204
-14.2969 12.2656 -1.9531 0 50 204
-14.1406 12.2656 -1.9531 0 50 204
-13.9844 12.4219 -1.9531 0 50 204
-14.9219 11.3281 -1.6406 0 64 190
-14.7656 11.3281 -1.6406 0 64 190
-14.6094 11.3281 -1.6406 0 64 190
-14.4531 11.4844 -1.6406 0 64 190
-14.9219 11.6406 -1.7969 0 57 197
-14.7656 11.6406 -1.7969 0 57 197
-14.7656 11.7969 -1.7969 0 57 197
-14.7656 11.6406 -1.6406 0 64 190
-14.6094 11.6406 -1.7969 0 57 197
-14.4531 11.6406 -1.7969 0 57 197
-14.4531 11.7969 -1.7969 0 57 197
-14.4531 11.7969 -1.6406 0 64 190
-14.2969 11.4844 -1.6406 0 64 190
-13.9844 11.4844 -1.6406 0 64 190
-14.1406 11.6406 -1.7969 0 57 197
-14.2969 11.7969 -1.7969 0 57 197
-14.1406 11.7969 -1.7969 0 57 197
-14.1406 11.7969 -1.6406 0 64 190
-13.8281 11.7969 -1.7969 0 57 197
-14.7656 11.9531 -1.7969 0 57 197
-14.7656 12.1094 -1.7969 0 57 197
-14.4531 11.9531 -1.7969 0 57 197
-14.4531 12.1094 -1.7969 0 57 197
-14.7656 12.4219 -1.7969 0 57 197
-14.1406 12.1094 -1.7969 0 57 197
-13.8281 12.1094 -1.7969 0 57 197
-13.8281 11.9531 -1.6406 0 64 190
-13.8281 12.2656 -1.7969 0 57 197
-13.5156 11.9531 -1.9531 0 50 204
-13.2031 11.9531 -1.9531 0 50 204
-13.6719 12.2656 -1.9531 0 50 204
-13.6719 12.4219 -1.9531 0 50 204
-13.3594 12.4219 -1.9531 0 50 204
-12.8906 12.1094 -1.9531 0 50 204
-12.5781 12.1094 -1.9531 0 50 204
-13.0469 12.4219 -1.9531 0 50 204
-13.5156 11.7969 -1.7969 0 57 197
-13.5156 11.9531 -1.6406 0 64 190
-13.2031 11.9531 -1.7969 0 57 197
-13.3594 12.1094 -1.6406 0 64 190
-13.6719 12.2656 -1.7969 0 57 197
-13.5156 12.2656 -1.7969 0 57 197
-13.3594 12.2656 -1.7969 0 57 197
-13.2031 12.4219 -1.7969 0 57 197
-13.0469 11.9531 -1.7969 0 57 197
-12.8906 11.9531 -1.7969 0 57 197
-13.0469 12.1094 -1.6406 0 64 190
-12.7344 11.9531 -1.7969 0 57 197
-12.7344 12.1094 -1.6406 0 64 190
-13.0469 12.4219 -1.7969 0 57 197
-12.8906 12.4219 -1.7969 0 57 197
-12.7344 12.4219 -1.7969 0 57 197
-12.5781 12.4219 -1.7969 0 57 197
-12.2656 12.1094 -1.9531 0 50 204
-12.1094 12.2656 -1.9531 0 50 204
-11.7969 12.4219 -1.9531 0 50 204
-11.6406 12.4219 -1.9531 0 50 204
-12.4219 12.1094 -1.7969 0 57 197
-12.2656 12.2656 -1.7969 0 57 197
-12.4219 12.2656 -1.6406 0 64 190
-11.9531 12.2656 -1.7969 0 57 197
-11.7969 12.4219 -1.7969 0 57 197
-14.6094 12.5781 -1.9531 0 50 204
-14.2969 12.7344 -1.9531 0 50 204
-13.9844 12.7344 -1.9531 0 50 204
-14.4531 12.5781 -1.7969 0 57 197
-14.1406 12.5781 -1.7969 0 57 197
-13.8281 12.7344 -1.7969 0 57 197
-13.6719 12.7344 -1.9531 0 50 204
-13.3594 12.5781 -1.9531 0 50 204
-13.3594 12.8906 -1.9531 0 50 204
-13.2031 12.8906 -1.9531 0 50 204
-13.0469 12.5781 -1.9531 0 50 204
-12.7344 12.7344 -1.9531 0 50 204
-12.5781 12.7344 -1.9531 0 50 204
-13.0469 12.8906 -2.1094 0 43 211
-13.0469 12.8906 -1.9531 0 50 204
-12.7344 13.0469 -2.1094 0 43 211
-12.7344 13.0469 -1.9531 0 50 204
-13.5156 12.7344 -1.7969 0 57 197
-13.2031 12.5781 -1.7969 0 57 197
-13.2031 12.8906 -1.7969 0 57 197
-12.8906 12.5781 -1.7969 0 57 197
-12.5781 12.5781 -1.7969 0 57 197
-12.7344 12.8906 -1.7969 0 57 197
-12.5781 12.8906 -1.7969 0 57 197
-12.2656 12.7344 -1.9531 0 50 204
-11.9531 12.7344 -1.9531 0 50 204
-12.2656 12.8906 -1.9531 0 50 204
-12.4219 13.0469 -1.9531 0 50 204
-12.2656 13.0469 -1.9531 0 50 204
-12.1094 12.8906 -1.9531 0 50 204
-11.9531 13.0469 -1.9531 0 50 204
-11.7969 12.7344 -1.9531 0 50 204
-11.4844 12.5781 -1.9531 0 50 204
-11.4844 12.7344 -1.9531 0 50 204
-11.7969 13.0469 -2.1094 0 43 211
-11.7969 12.8906 -1.9531 0 50 204
-11.6406 13.0469 -1.9531 0 50 204
-11.4844 12.8906 -1.9531 0 50 204
-11.3281 13.0469 -1.9531 0 50 204
-12.4219 13.2031 -2.1094 0 43 211
-12.2656 13.2031 -1.9531 0 50 204
-12.1094 13.2031 -2.1094 0 43 211
-11.9531 13.3594 -2.1094 0 43 211
-11.9531 13.2031 -1.9531 0 50 204
-11.6406 13.3594 -2.1094 0 43 211
-11.7969 13.2031 -1.9531 0 50 204
-11.7969 13.3594 -1.9531 0 50 204
-11.6406 13.3594 -1.9531 0 50 204
-11.4844 13.2031 -2.1094 0 43 211
-11.3281 13.2031 -2.1094 0 43 211
-11.4844 13.2031 -1.9531 0 50 204
-11.4844 13.3594 -1.9531 0 50 204
-11.3281 13.5156 -2.1094 0 43 211
-11.3281 13.5156 -1.9531 0 50 204
-12.4219 12.5781 -1.7969 0 57 197
-12.2656 12.5781 -1.7969 0 57 197
-12.4219 12.7344 -1.7969 0 57 197
-11.9531 12.5781 -1.7969 0 57 197
-11.4844 12.5781 -1.7969 0 57 197
-11.3281 12.5781 -1.7969 0 57 197
-11.1719 12.7344 -1.9531 0 50 204
-11.0156 12.7344 -1.9531 0 50 204
-11.0156 13.0469 -1.9531 0 50 204
-10.7031 12.8906 -1.9531 0 50 204
-10.3906 13.0469 -2.1094 0 43 211
-10.5469 12.8906 -1.9531 0 50 204
-11.0156 13.3594 -2.1094 0 43 211
-11.1719 13.2031 -1.9531 0 50 204
-11.1719 13.3594 -1.9531 0 50 204
-11.0156 13.3594 -1.9531 0 50 204
-10.8594 13.2031 -1.9531 0 50 204
-10.8594 13.3594 -1.9531 0 50 204
-10.7031 13.3594 -1.9531 0 50 204
-11.1719 13.5156 -2.1094 0 43 211
-11.1719 13.6719 -2.1094 0 43 211
-11.0156 13.6719 -2.1094 0 43 211
-11.0156 13.6719 -1.9531 0 50 204
-10.8594 13.5156 -2.1094 0 43 211
-10.8594 13.6719 -2.1094 0 43 211
-10.7031 13.6719 -2.1094 0 43 211
-10.7031 13.5156 -1.9531 0 50 204
-10.8594 13.6719 -1.9531 0 50 204
-10.5469 13.3594 -1.9531 0 50 204
-10.3906 13.3594 -1.9531 0 50 204
-10.5469 13.5156 -2.1094 0 43 211
-10.3906 13.6719 -2.1094 0 43 211
-10.5469 13.5156 -1.9531 0 50 204
-10.2344 13.5156 -1.9531 0 50 204
-10.2344 13.6719 -1.9531 0 50 204
-10.0781 13.6719 -1.9531 0 50 204
-10.7031 13.8281 -2.1094 0 43 211
-10.0781 14.1406 -2.2656 0 35 219
-10.5469 13.8281 -2.1094 0 43 211
-10.3906 13.8281 -2.1094 0 43 211
-10.2344 13.8281 -2.1094 0 43 211
-10.2344 13.9844 -2.1094 0 43 211
-10.0781 13.9844 -2.1094 0 43 211
-10.5469 14.1406 -2.1094 0 43 211
-10.2344 14.2969 -2.1094 0 43 211
-10.0781 14.4531 -2.1094 0 43 211
-9.7656 13.6719 -2.1094 0 43 211
-9.7656 13.9844 -2.2656 0 35 219
-9.7656 14.1406 -2.2656 0 35 219
-9.6094 14.1406 -2.2656 0 35 219
-9.6094 14.2969 -2.2656 0 35 219
-9.4531 14.2969 -2.2656 0 35 219
-9.9219 13.8281 -2.1094 0 43 211
-9.6094 13.8281 -2.1094 0 43 211
-9.4531 13.9844 -2.1094 0 43 211
-9.9219 14.1406 -2.1094 0 43 211
-9.7656 14.1406 -2.1094 0 43 211
-9.6094 14.1406 -2.1094 0 43 211
-9.6094 14.2969 -2.1094 0 43 211
-9.4531 14.2969 -2.1094 0 43 211
-9.2969 14.2969 -2.2656 0 35 219
-9.2969 14.1406 -2.1094 0 43 211
-9.1406 14.2969 -2.1094 0 43 211
-8.9844 14.2969 -2.1094 0 43 211
-9.4531 14.4531 -2.2656 0 35 219
-9.6094 14.7656 -2.2656 0 35 219
-9.4531 14.9219 -2.2656 0 35 219
-9.9219 14.4531 -2.1094 0 43 211
-9.6094 14.6094 -2.1094 0 43 211
-9.4531 14.7656 -2.1094 0 43 211
-9.2969 14.6094 -2.2656 0 35 219
-8.9844 14.6094 -2.2656 0 35 219
-8.8281 14.7656 -2.2656 0 35 219
-9.2969 14.4531 -2.1094 0 43 211
-9.1406 14.4531 -2.1094 0 43 211
-8.9844 14.6094 -2.1094 0 43 211
-9.2969 14.7656 -2.1094 0 43 211
-8.9844 14.9219 -2.1094 0 43 211
-8.6719 14.9219 -2.2656 0 35 219
-8.3594 14.9219 -2.2656 0 35 219
-8.6719 14.4531 -2.1094 0 43 211
-8.5156 14.6094 -2.1094 0 43 211
-8.3594 14.7656 -2.1094 0 43 211
-7.8906 15.8594 -2.5781 0 21 233
-8.0469 16.0156 -2.5781 0 21 233
-7.8906 16.0156 -2.5781 0 21 233
-7.7344 16.0156 -2.5781 0 21 233
-7.7344 16.1719 -2.5781 0 21 233
-7.5781 16.1719 -2.5781 0 21 233
-7.5781 16.3281 -2.5781 0 21 233
-7.4219 16.3281 -2.5781 0 21 233
-7.4219 16.4844 -2.5781 0 21 233
-7.2656 16.4844 -2.5781 0 21 233
-7.1094 16.6406 -2.7344 0 14 240
-6.9531 16.7969 -2.7344 0 14 240
-7.1094 16.6406 -2.5781 0 21 233
-6.9531 16.7969 -2.5781 0 21 233
-6.7969 16.7969 -2.5781 0 21 233
-6.6406 16.7969 -2.5781 0 21 233
-6.3281 16.7969 -2.5781 0 21 233
-6.7969 16.9531 -2.7344 0 14 240
-6.6406 17.1094 -2.7344 0 14 240
-6.4844 16.9531 -2.5781 0 21 233
-6.3281 17.1094 -2.5781 0 21 233
-6.4844 17.2656 -2.7344 0 14 240
-6.3281 17.4219 -2.7344 0 14 240
-6.1719 17.4219 -2.8906 0 7 247
-6.0156 17.4219 -2.7344 0 14 240
-6.1719 17.2656 -2.5781 0 21 233
-6.0156 17.7344 -2.8906 0 7 247
-5.8594 17.8906 -2.8906 0 7 247
-5.8594 18.0469 -2.8906 0 7 247
-5.7031 18.0469 -2.8906 0 7 247
-6.1719 17.5781 -2.7344 0 14 240
-5.8594 17.5781 -2.7344 0 14 240
-5.7031 17.8906 -2.7344 0 14 240
-5.7031 18.2031 -2.8906 0 7 247
-5.5469 18.2031 -2.8906 0 7 247
-5.5469 18.3594 -2.8906 0 7 247
-5.2344 18.5156 -3.0469 0 0 255
-5.0781 18.6719 -3.0469 0 0 255
-9.1406 15.0781 -2.4219 0 28 226
-9.2969 15.0781 -2.2656 0 35 219
-8.9844 15.0781 -2.4219 0 28 226
-8.8281 15.2344 -2.4219 0 28 226
-8.9844 15.2344 -2.2656 0 35 219
-8.8281 15.2344 -2.2656 0 35 219
-8.8281 15.0781 -2.1094 0 43 211
-8.5156 15.0781 -2.4219 0 28 226
-8.6719 15.0781 -2.2656 0 35 219
-8.5156 15.2344 -2.2656 0 35 219
-8.2031 15.0781 -2.2656 0 35 219
-8.6719 15.3906 -2.4219 0 28 226
-8.6719 15.5469 -2.4219 0 28 226
-8.5156 15.5469 -2.4219 0 28 226
-8.6719 15.3906 -2.2656 0 35 219
-8.5156 15.5469 -2.2656 0 35 219
-8.2031 15.5469 -2.4219 0 28 226
-8.3594 15.3906 -2.2656 0 35 219
-8.0469 15.2344 -2.2656 0 35 219
-7.8906 15.3906 -2.2656 0 35 219
-8.0469 15.5469 -2.2656 0 35 219
-7.8906 15.5469 -2.2656 0 35 219
-7.5781 15.5469 -2.4219 0 28 226
-7.7344 15.5469 -2.2656 0 35 219
-8.5156 15.7031 -2.4219 0 28 226
-8.3594 15.7031 -2.4219 0 28 226
-8.2031 15.8594 -2.4219 0 28 226
-8.0469 15.7031 -2.4219 0 28 226
-7.8906 15.8594 -2.4219 0 28 226
-7.7344 15.7031 -2.2656 0 35 219
-7.5781 15.8594 -2.2656 0 35 219
-7.7344 16.0156 -2.4219 0 28 226
-7.5781 16.1719 -2.4219 0 28 226
-7.4219 15.7031 -2.4219 0 28 226
-7.4219 16.0156 -2.4219 0 28 226
-7.2656 16.1719 -2.4219 0 28 226
-7.1094 16.1719 -2.4219 0 28 226
-7.4219 16.3281 -2.4219 0 28 226
-7.2656 16.4844 -2.4219 0 28 226
-6.7969 16.3281 -2.4219 0 28 226
-6.6406 16.4844 -2.4219 0 28 226
-6.4844 16.6406 -2.4219 0 28 226
-4.9219 18.9844 -3.0469 0 0 255
-4.7656 19.1406 -3.0469 0 0 255
0.5469 0.7031 -0.3906 0 122 132
0.5469 0.8594 -0.3906 0 122 132
0.7031 0.7031 -0.3906 0 122 132
0.7031 0.8594 -0.3906 0 122 132
0.7031 1.0156 -0.5469 0 114 140
0.8594 1.0156 -0.5469 0 114 140
0.8594 1.1719 -0.5469 0 114 140
0.7031 1.0156 -0.3906 0 122 132
1.0156 1.1719 -0.5469 0 114 140
1.0156 1.0156 -0.3906 0 122 132
1.0156 1.1719 -0.3906 0 122 132
1.0156 1.3281 -0.5469 0 114 140
1.1719 1.3281 -0.5469 0 114 140
1.1719 1.4844 -0.5469 0 114 140
1.1719 1.6406 -0.5469 0 114 140
1.4844 1.7969 -0.7031 0 107 147
1.6406 1.7969 -0.7031 0 107 147
1.7969 1.7969 -0.7031 0 107 147
1.6406 1.9531 -0.7031 0 107 147
1.7969 1.9531 -0.7031 0 107 147
1.9531 1.9531 -0.7031 0 107 147
2.2656 1.9531 -0.7031 0 107 147
1.3281 1.3281 -0.5469 0 114 140
1.3281 1.4844 -0.5469 0 114 140
1.3281 1.6406 -0.5469 0 114 140
1.4844 1.6406 -0.5469 0 114 140
1.3281 1.7969 -0.5469 0 114 140
1.4844 1.7969 -0.5469 0 114 140
1.6406 1.7969 -0.5469 0 114 140
1.4844 1.9531 -0.5469 0 114 140
1.6406 1.9531 -0.5469 0 114 140
1.7969 1.9531 -0.5469 0 114 140
1.9531 1.9531 -0.5469 0 114 140
2.1094 1.9531 -0.5469 0 114 140
1.9531 2.1094 -0.5469 0 114 140
