ply
format ascii 1.0
comment OctoMap 3D export - Moose Robot
comment Resolution: 0.100 m
element vertex 1427
property float x
property float y
property float z
property uchar red
property uchar green
property uchar blue
end_header
-7.1094 -2.1094 -0.7031 0 142 112
-6.9531 -2.1094 -0.7031 0 142 112
-7.1094 -1.9531 -0.7031 0 142 112
-6.9531 -1.9531 -0.7031 0 142 112
-6.3281 -2.4219 -1.0156 0 129 125
-6.4844 -2.4219 -0.8594 0 135 119
-6.4844 -2.2656 -0.8594 0 135 119
-6.7969 -1.9531 -0.7031 0 142 112
-6.4844 -2.1094 -0.8594 0 135 119
-6.4844 -2.1094 -0.7031 0 142 112
-6.9531 -1.7969 -0.7031 0 142 112
-6.9531 -1.6406 -0.7031 0 142 112
-6.7969 -1.7969 -0.7031 0 142 112
-6.6406 -1.7969 -0.7031 0 142 112
-6.7969 -1.6406 -0.7031 0 142 112
-6.6406 -1.6406 -0.7031 0 142 112
-6.7969 -1.4844 -0.7031 0 142 112
-6.6406 -1.4844 -0.7031 0 142 112
-6.7969 -1.3281 -0.7031 0 142 112
-6.4844 -1.4844 -0.7031 0 142 112
-6.3281 -1.4844 -0.7031 0 142 112
-6.4844 -1.3281 -0.7031 0 142 112
-6.3281 -1.3281 -0.7031 0 142 112
-7.4219 -2.4219 -0.5469 0 148 106
-7.4219 -2.2656 -0.5469 0 148 106
-7.4219 -2.1094 -0.5469 0 148 106
-7.2656 -2.1094 -0.5469 0 148 106
-7.2656 -1.9531 -0.5469 0 148 106
-7.2656 -1.6406 -0.5469 0 148 106
-7.2656 -1.6406 -0.3906 0 154 100
-7.1094 -1.7969 -0.5469 0 148 106
-6.9531 -1.7969 -0.5469 0 148 106
-7.1094 -1.6406 -0.5469 0 148 106
-6.9531 -1.6406 -0.5469 0 148 106
-7.1094 -1.6406 -0.3906 0 154 100
-7.4219 -1.3281 -0.3906 0 154 100
-7.1094 -1.4844 -0.5469 0 148 106
-7.1094 -1.3281 -0.5469 0 148 106
-7.1094 -1.4844 -0.3906 0 154 100
-7.1094 -1.3281 -0.3906 0 154 100
-6.9531 -1.3281 -0.3906 0 154 100
-6.7969 -1.4844 -0.5469 0 148 106
-6.7969 -1.3281 -0.5469 0 148 106
-6.6406 -1.3281 -0.5469 0 148 106
-6.0156 -2.4219 -1.0156 0 129 125
-6.0156 -2.2656 -1.0156 0 129 125
-5.7031 -2.2656 -1.0156 0 129 125
-5.7031 -2.1094 -1.0156 0 129 125
-6.1719 -2.4219 -0.8594 0 135 119
-6.1719 -2.2656 -0.8594 0 135 119
-6.1719 -2.1094 -0.8594 0 135 119
-6.1719 -1.9531 -0.8594 0 135 119
-6.0156 -1.9531 -0.8594 0 135 119
-5.5469 -2.4219 -1.0156 0 129 125
-5.2344 -2.4219 -1.0156 0 129 125
-5.2344 -2.2656 -1.0156 0 129 125
-5.2344 -2.1094 -1.0156 0 129 125
-5.2344 -1.9531 -1.0156 0 129 125
-5.2344 -1.9531 -0.8594 0 135 119
-6.1719 -1.7969 -0.8594 0 135 119
-6.0156 -1.7969 -0.8594 0 135 119
-6.1719 -1.6406 -0.8594 0 135 119
-6.0156 -1.4844 -0.8594 0 135 119
-6.0156 -1.3281 -0.8594 0 135 119
-6.0156 -1.4844 -0.7031 0 142 112
-6.0156 -1.3281 -0.7031 0 142 112
-5.7031 -1.4844 -0.8594 0 135 119
-5.7031 -1.3281 -0.8594 0 135 119
-5.5469 -1.6406 -0.8594 0 135 119
-5.2344 -1.7969 -0.8594 0 135 119
-5.5469 -1.3281 -0.8594 0 135 119
-5.2344 -1.4844 -0.8594 0 135 119
-5.2344 -1.3281 -0.8594 0 135 119
-6.4844 -1.1719 -0.7031 0 142 112
-7.4219 -1.1719 -0.3906 0 154 100
-7.2656 -1.1719 -0.3906 0 154 100
-7.2656 -1.0156 -0.3906 0 154 100
-7.1094 -1.1719 -0.5469 0 148 106
-6.9531 -1.1719 -0.5469 0 148 106
-6.9531 -1.0156 -0.5469 0 148 106
-6.9531 -1.1719 -0.3906 0 154 100
-6.9531 -1.0156 -0.3906 0 154 100
-6.9531 -0.8594 -0.5469 0 148 106
-7.1094 -0.8594 -0.3906 0 154 100
-6.9531 -0.7031 -0.3906 0 154 100
-7.4219 -1.0156 -0.2344 0 161 93
-7.4219 -0.8594 -0.2344 0 161 93
-7.2656 -0.8594 -0.2344 0 161 93
-7.4219 -0.7031 -0.2344 0 161 93
-7.2656 -0.7031 -0.2344 0 161 93
-7.1094 -0.7031 -0.2344 0 161 93
-6.9531 -0.7031 -0.2344 0 161 93
-6.7969 -1.1719 -0.5469 0 148 106
-6.6406 -1.1719 -0.5469 0 148 106
-6.7969 -1.0156 -0.5469 0 148 106
-6.6406 -1.0156 -0.5469 0 148 106
-6.7969 -1.0156 -0.3906 0 154 100
-6.7969 -0.8594 -0.5469 0 148 106
-6.6406 -0.8594 -0.5469 0 148 106
-6.7969 -0.7031 -0.5469 0 148 106
-6.6406 -0.7031 -0.5469 0 148 106
-6.7969 -0.8594 -0.3906 0 154 100
-6.7969 -0.7031 -0.3906 0 154 100
-6.3281 -0.8594 -0.5469 0 148 106
-6.4844 -0.7031 -0.5469 0 148 106
-6.3281 -0.7031 -0.5469 0 148 106
-7.1094 -0.5469 -0.2344 0 161 93
-7.1094 -0.3906 -0.2344 0 161 93
-6.9531 -0.3906 -0.2344 0 161 93
-7.1094 -0.2344 -0.2344 0 161 93
-6.9531 -0.2344 -0.2344 0 161 93
-6.9531 -0.0781 -0.2344 0 161 93
-6.7969 -0.5469 -0.5469 0 148 106
-6.6406 -0.3906 -0.5469 0 148 106
-6.7969 -0.5469 -0.3906 0 154 100
-6.6406 -0.5469 -0.3906 0 154 100
-6.7969 -0.3906 -0.3906 0 154 100
-6.6406 -0.3906 -0.3906 0 154 100
-6.4844 -0.5469 -0.5469 0 148 106
-6.3281 -0.3906 -0.5469 0 148 106
-6.4844 -0.3906 -0.3906 0 154 100
-6.6406 -0.2344 -0.3906 0 154 100
-6.6406 -0.0781 -0.3906 0 154 100
-6.3281 -0.2344 -0.5469 0 148 106
-6.4844 -0.2344 -0.3906 0 154 100
-6.4844 -0.0781 -0.3906 0 154 100
-6.3281 -0.0781 -0.3906 0 154 100
-6.7969 -0.3906 -0.2344 0 161 93
-6.6406 -0.3906 -0.2344 0 161 93
-6.7969 -0.2344 -0.2344 0 161 93
-6.7969 -0.0781 -0.2344 0 161 93
-6.0156 -1.1719 -0.8594 0 135 119
-6.1719 -1.1719 -0.7031 0 142 112
-6.0156 -1.1719 -0.7031 0 142 112
-6.1719 -1.0156 -0.7031 0 142 112
-6.0156 -1.0156 -0.7031 0 142 112
-5.7031 -1.1719 -0.8594 0 135 119
-5.7031 -1.1719 -0.7031 0 142 112
-5.7031 -1.0156 -0.7031 0 142 112
-6.1719 -0.8594 -0.7031 0 142 112
-6.0156 -0.8594 -0.7031 0 142 112
-6.0156 -0.7031 -0.7031 0 142 112
-5.7031 -0.8594 -0.7031 0 142 112
-5.8594 -0.7031 -0.7031 0 142 112
-5.7031 -0.7031 -0.7031 0 142 112
-5.2344 -1.1719 -0.8594 0 135 119
-5.2344 -1.0156 -0.8594 0 135 119
-5.3906 -0.8594 -0.7031 0 142 112
-5.3906 -0.7031 -0.7031 0 142 112
-5.2344 -0.8594 -0.7031 0 142 112
-5.8594 -0.5469 -0.7031 0 142 112
-5.7031 -0.5469 -0.7031 0 142 112
-5.8594 -0.3906 -0.7031 0 142 112
-5.7031 -0.3906 -0.7031 0 142 112
-5.8594 -0.2344 -0.7031 0 142 112
-5.3906 -0.3906 -0.7031 0 142 112
-5.0781 -0.3906 -0.7031 0 142 112
-5.5469 -0.2344 -0.7031 0 142 112
-5.3906 -0.2344 -0.7031 0 142 112
-5.0781 -0.2344 -0.7031 0 142 112
-5.0781 -0.0781 -0.7031 0 142 112
-6.0156 -0.5469 -0.5469 0 148 106
-6.1719 -0.3906 -0.5469 0 148 106
-6.0156 -0.3906 -0.5469 0 148 106
-5.8594 -0.3906 -0.5469 0 148 106
-6.0156 -0.2344 -0.5469 0 148 106
-6.0156 -0.0781 -0.5469 0 148 106
-5.8594 -0.2344 -0.5469 0 148 106
-5.8594 -0.0781 -0.5469 0 148 106
-5.3906 -0.0781 -0.5469 0 148 106
-4.9219 -4.7656 -1.4844 0 109 145
-4.9219 -4.6094 -1.4844 0 109 145
-4.9219 -4.4531 -1.3281 0 116 138
-4.6094 -4.6094 -1.4844 0 109 145
-4.6094 -4.4531 -1.4844 0 109 145
-4.9219 -4.2969 -1.3281 0 116 138
-4.9219 -4.1406 -1.3281 0 116 138
-4.6094 -4.1406 -1.3281 0 116 138
-4.9219 -3.9844 -1.3281 0 116 138
-4.7656 -3.9844 -1.3281 0 116 138
-4.7656 -3.8281 -1.3281 0 116 138
-4.4531 -3.9844 -1.3281 0 116 138
-4.4531 -3.8281 -1.3281 0 116 138
-2.5781 -3.8281 -1.4844 0 109 145
-4.9219 -3.6719 -1.3281 0 116 138
-4.7656 -3.6719 -1.3281 0 116 138
-4.4531 -3.6719 -1.3281 0 116 138
-4.4531 -3.5156 -1.3281 0 116 138
-4.1406 -3.6719 -1.3281 0 116 138
-4.1406 -3.5156 -1.3281 0 116 138
-3.2031 -3.2031 -1.4844 0 109 145
-2.5781 -3.6719 -1.6406 0 103 151
-2.7344 -3.5156 -1.6406 0 103 151
-2.5781 -3.5156 -1.6406 0 103 151
-2.8906 -3.3594 -1.6406 0 103 151
-2.8906 -3.5156 -1.4844 0 109 145
-2.5781 -3.6719 -1.4844 0 109 145
-3.0469 -3.3594 -1.4844 0 109 145
-2.8906 -3.3594 -1.4844 0 109 145
-3.0469 -3.2031 -1.4844 0 109 145
-2.8906 -3.2031 -1.4844 0 109 145
-2.7344 -3.3594 -1.4844 0 109 145
-2.5781 -3.3594 -1.4844 0 109 145
-2.7344 -3.2031 -1.4844 0 109 145
-2.5781 -3.2031 -1.4844 0 109 145
-3.2031 -3.0469 -1.3281 0 116 138
-3.2031 -2.8906 -1.3281 0 116 138
-3.6719 -2.7344 -1.3281 0 116 138
-3.6719 -2.5781 -1.3281 0 116 138
-3.2031 -2.7344 -1.4844 0 109 145
-3.0469 -3.0469 -1.4844 0 109 145
-2.8906 -3.0469 -1.4844 0 109 145
-3.0469 -2.8906 -1.4844 0 109 145
-2.8906 -2.8906 -1.4844 0 109 145
-2.7344 -3.0469 -1.4844 0 109 145
-2.5781 -3.0469 -1.4844 0 109 145
-2.7344 -2.8906 -1.4844 0 109 145
-3.0469 -2.7344 -1.4844 0 109 145
-2.8906 -2.7344 -1.4844 0 109 145
-3.0469 -2.5781 -1.3281 0 116 138
-2.7344 -2.7344 -1.4844 0 109 145
-2.5781 -2.7344 -1.4844 0 109 145
-2.7344 -2.5781 -1.4844 0 109 145
-4.9219 -3.5156 -1.1719 0 122 132
-4.9219 -3.3594 -1.1719 0 122 132
-4.9219 -3.2031 -1.1719 0 122 132
-4.6094 -3.3594 -1.1719 0 122 132
-4.6094 -3.2031 -1.1719 0 122 132
-4.4531 -3.2031 -1.1719 0 122 132
-4.1406 -3.3594 -1.1719 0 122 132
-4.1406 -3.2031 -1.1719 0 122 132
-4.9219 -3.0469 -1.1719 0 122 132
-4.9219 -2.8906 -1.1719 0 122 132
-4.6094 -3.0469 -1.1719 0 122 132
-4.4531 -3.0469 -1.1719 0 122 132
-4.6094 -2.8906 -1.1719 0 122 132
-4.4531 -2.8906 -1.1719 0 122 132
-4.9219 -2.7344 -1.1719 0 122 132
-4.9219 -2.7344 -1.0156 0 129 125
-4.9219 -2.5781 -1.0156 0 129 125
-4.6094 -2.7344 -1.1719 0 122 132
-4.6094 -2.5781 -1.1719 0 122 132
-4.1406 -3.0469 -1.1719 0 122 132
-4.1406 -2.8906 -1.1719 0 122 132
-3.8281 -2.8906 -1.1719 0 122 132
-4.2969 -2.7344 -1.1719 0 122 132
-4.1406 -2.7344 -1.1719 0 122 132
-4.2969 -2.5781 -1.1719 0 122 132
-4.1406 -2.5781 -1.1719 0 122 132
-3.8281 -2.7344 -1.1719 0 122 132
-3.8281 -2.5781 -1.1719 0 122 132
-3.5156 -2.7344 -1.1719 0 122 132
-3.5156 -2.5781 -1.1719 0 122 132
-1.3281 -4.6094 -1.7969 0 96 158
-2.1094 -4.1406 -1.6406 0 103 151
-1.9531 -4.1406 -1.6406 0 103 151
-2.2656 -3.9844 -1.6406 0 103 151
-2.1094 -3.9844 -1.6406 0 103 151
-1.9531 -3.9844 -1.6406 0 103 151
-1.9531 -3.8281 -1.6406 0 103 151
-2.2656 -3.9844 -1.4844 0 109 145
-2.4219 -3.8281 -1.4844 0 109 145
-1.7969 -4.1406 -1.7969 0 96 158
-1.7969 -4.1406 -1.6406 0 103 151
-1.6406 -4.1406 -1.6406 0 103 151
-1.4844 -4.2969 -1.7969 0 96 158
-1.3281 -4.1406 -1.7969 0 96 158
-1.4844 -4.1406 -1.6406 0 103 151
-1.3281 -4.1406 -1.6406 0 103 151
-1.6406 -3.8281 -1.6406 0 103 151
-1.4844 -3.8281 -1.6406 0 103 151
-1.3281 -3.8281 -1.6406 0 103 151
-1.0156 -4.6094 -1.7969 0 96 158
-1.1719 -4.4531 -1.7969 0 96 158
-1.1719 -4.4531 -1.6406 0 103 151
-0.8594 -4.6094 -1.7969 0 96 158
-0.8594 -4.4531 -1.7969 0 96 158
-0.7031 -4.4531 -1.7969 0 96 158
-0.5469 -4.6094 -1.7969 0 96 158
-0.3906 -4.6094 -1.7969 0 96 158
-0.3906 -4.4531 -1.7969 0 96 158
-0.2344 -4.6094 -1.7969 0 96 158
-0.0781 -4.6094 -1.7969 0 96 158
-0.0781 -4.4531 -1.7969 0 96 158
-1.1719 -4.2969 -1.7969 0 96 158
-1.0156 -4.2969 -1.7969 0 96 158
-1.1719 -4.1406 -1.6406 0 103 151
-0.8594 -4.2969 -1.7969 0 96 158
-0.7031 -4.2969 -1.7969 0 96 158
-0.8594 -4.1406 -1.7969 0 96 158
-1.1719 -3.8281 -1.7969 0 96 158
-1.1719 -3.8281 -1.6406 0 103 151
-1.0156 -3.8281 -1.6406 0 103 151
-0.8594 -3.8281 -1.6406 0 103 151
-0.7031 -3.8281 -1.6406 0 103 151
-0.5469 -4.2969 -1.7969 0 96 158
-0.3906 -4.2969 -1.7969 0 96 158
-0.3906 -4.1406 -1.7969 0 96 158
-0.2344 -4.2969 -1.7969 0 96 158
-0.2344 -4.1406 -1.7969 0 96 158
-0.0781 -4.1406 -1.7969 0 96 158
-0.5469 -3.8281 -1.6406 0 103 151
-2.4219 -3.6719 -1.6406 0 103 151
-2.2656 -3.6719 -1.6406 0 103 151
-2.4219 -3.5156 -1.6406 0 103 151
-2.2656 -3.5156 -1.6406 0 103 151
-2.1094 -3.6719 -1.6406 0 103 151
-1.9531 -3.6719 -1.6406 0 103 151
-2.1094 -3.5156 -1.6406 0 103 151
-1.9531 -3.5156 -1.6406 0 103 151
-2.4219 -3.3594 -1.6406 0 103 151
-2.2656 -3.3594 -1.6406 0 103 151
-2.1094 -3.3594 -1.6406 0 103 151
-2.2656 -3.5156 -1.4844 0 109 145
-2.4219 -3.2031 -1.4844 0 109 145
-1.7969 -3.6719 -1.6406 0 103 151
-1.6406 -3.6719 -1.6406 0 103 151
-1.7969 -3.5156 -1.6406 0 103 151
-1.6406 -3.5156 -1.6406 0 103 151
-1.4844 -3.6719 -1.6406 0 103 151
-1.3281 -3.6719 -1.6406 0 103 151
-1.4844 -3.5156 -1.6406 0 103 151
-1.3281 -3.5156 -1.6406 0 103 151
-1.7969 -3.2031 -1.6406 0 103 151
-1.6406 -3.2031 -1.6406 0 103 151
-1.4844 -3.2031 -1.6406 0 103 151
-1.3281 -3.2031 -1.6406 0 103 151
-2.1094 -3.0469 -1.6406 0 103 151
-1.9531 -3.0469 -1.6406 0 103 151
-2.4219 -2.8906 -1.4844 0 109 145
-2.2656 -2.8906 -1.4844 0 109 145
-2.1094 -2.8906 -1.4844 0 109 145
-2.4219 -2.7344 -1.4844 0 109 145
-2.2656 -2.7344 -1.4844 0 109 145
-2.4219 -2.5781 -1.4844 0 109 145
-2.2656 -2.5781 -1.4844 0 109 145
-2.1094 -2.7344 -1.4844 0 109 145
-1.9531 -2.7344 -1.4844 0 109 145
-2.1094 -2.5781 -1.4844 0 109 145
-1.9531 -2.5781 -1.4844 0 109 145
-1.7969 -3.0469 -1.6406 0 103 151
-1.4844 -3.0469 -1.6406 0 103 151
-1.3281 -3.0469 -1.6406 0 103 151
-1.4844 -2.8906 -1.6406 0 103 151
-1.3281 -2.8906 -1.6406 0 103 151
-1.3281 -2.7344 -1.6406 0 103 151
-1.4844 -2.5781 -1.6406 0 103 151
-1.7969 -2.7344 -1.4844 0 109 145
-1.6406 -2.7344 -1.4844 0 109 145
-1.7969 -2.5781 -1.4844 0 109 145
-1.6406 -2.5781 -1.4844 0 109 145
-1.4844 -2.7344 -1.4844 0 109 145
-1.1719 -3.6719 -1.6406 0 103 151
-1.0156 -3.6719 -1.6406 0 103 151
-1.1719 -3.5156 -1.6406 0 103 151
-1.0156 -3.5156 -1.6406 0 103 151
-0.8594 -3.6719 -1.6406 0 103 151
-0.7031 -3.6719 -1.6406 0 103 151
-1.1719 -3.3594 -1.6406 0 103 151
-1.0156 -3.3594 -1.6406 0 103 151
-0.8594 -3.3594 -1.6406 0 103 151
-0.7031 -3.3594 -1.6406 0 103 151
-0.5469 -3.6719 -1.6406 0 103 151
-0.3906 -3.6719 -1.6406 0 103 151
-0.2344 -3.6719 -1.6406 0 103 151
-0.2344 -3.5156 -1.6406 0 103 151
-0.0781 -3.5156 -1.6406 0 103 151
-0.5469 -3.3594 -1.6406 0 103 151
-1.1719 -3.0469 -1.6406 0 103 151
-1.0156 -3.0469 -1.6406 0 103 151
-1.1719 -2.8906 -1.6406 0 103 151
-0.8594 -3.0469 -1.6406 0 103 151
-0.7031 -3.0469 -1.6406 0 103 151
-1.1719 -2.7344 -1.6406 0 103 151
-1.0156 -2.7344 -1.6406 0 103 151
-3.8281 -2.4219 -1.3281 0 116 138
-3.8281 -2.2656 -1.3281 0 116 138
-3.6719 -2.2656 -1.3281 0 116 138
-3.2031 -2.4219 -1.3281 0 116 138
-3.2031 -2.1094 -1.3281 0 116 138
-3.3594 -1.9531 -1.3281 0 116 138
-3.2031 -1.9531 -1.3281 0 116 138
-2.8906 -2.4219 -1.4844 0 109 145
-2.8906 -2.2656 -1.4844 0 109 145
-3.0469 -2.4219 -1.3281 0 116 138
-3.0469 -2.2656 -1.3281 0 116 138
-2.8906 -2.2656 -1.3281 0 116 138
-2.5781 -2.4219 -1.4844 0 109 145
-2.7344 -2.2656 -1.4844 0 109 145
-2.5781 -2.2656 -1.4844 0 109 145
-3.0469 -2.1094 -1.3281 0 116 138
-2.8906 -2.1094 -1.3281 0 116 138
-3.0469 -1.9531 -1.3281 0 116 138
-2.8906 -1.9531 -1.3281 0 116 138
-2.5781 -2.1094 -1.4844 0 109 145
-2.7344 -1.9531 -1.4844 0 109 145
-2.5781 -1.9531 -1.4844 0 109 145
-2.7344 -2.1094 -1.3281 0 116 138
-3.2031 -1.7969 -1.3281 0 116 138
-3.2031 -1.6406 -1.3281 0 116 138
-3.0469 -1.7969 -1.3281 0 116 138
-2.8906 -1.7969 -1.3281 0 116 138
-3.0469 -1.6406 -1.3281 0 116 138
-2.8906 -1.6406 -1.3281 0 116 138
-2.7344 -1.7969 -1.3281 0 116 138
-2.7344 -1.6406 -1.3281 0 116 138
-2.5781 -1.6406 -1.3281 0 116 138
-2.8906 -1.4844 -1.3281 0 116 138
-3.0469 -1.3281 -1.3281 0 116 138
-2.7344 -1.4844 -1.3281 0 116 138
-2.5781 -1.4844 -1.3281 0 116 138
-2.7344 -1.3281 -1.3281 0 116 138
-2.5781 -1.3281 -1.3281 0 116 138
-2.8906 -1.1719 -1.3281 0 116 138
-2.7344 -1.1719 -1.3281 0 116 138
-2.5781 -1.1719 -1.3281 0 116 138
-2.7344 -1.0156 -1.3281 0 116 138
-2.5781 -1.0156 -1.3281 0 116 138
-2.7344 -0.8594 -1.3281 0 116 138
-2.5781 -0.5469 -1.3281 0 116 138
-4.9219 -2.4219 -1.0156 0 129 125
-4.9219 -2.2656 -1.0156 0 129 125
-4.6094 -2.4219 -1.0156 0 129 125
-4.6094 -2.2656 -1.0156 0 129 125
-4.9219 -2.1094 -1.0156 0 129 125
-4.6094 -2.1094 -1.0156 0 129 125
-4.6094 -1.9531 -1.0156 0 129 125
-4.1406 -2.4219 -1.1719 0 122 132
-4.2969 -2.4219 -1.0156 0 129 125
-4.2969 -2.2656 -1.0156 0 129 125
-4.1406 -2.2656 -1.0156 0 129 125
-3.8281 -2.4219 -1.1719 0 122 132
-3.8281 -2.2656 -1.1719 0 122 132
-4.2969 -2.1094 -1.0156 0 129 125
-4.2969 -1.9531 -1.0156 0 129 125
-3.8281 -2.1094 -1.1719 0 122 132
-3.8281 -1.9531 -1.1719 0 122 132
-3.9844 -2.1094 -1.0156 0 129 125
-3.8281 -2.1094 -1.0156 0 129 125
-3.9844 -1.9531 -1.0156 0 129 125
-4.6094 -1.7969 -1.0156 0 129 125
-4.9219 -1.6406 -0.8594 0 135 119
-4.9219 -1.4844 -0.8594 0 135 119
-4.9219 -1.3281 -0.8594 0 135 119
-4.6094 -1.4844 -0.8594 0 135 119
-4.6094 -1.3281 -0.8594 0 135 119
-4.2969 -1.7969 -1.0156 0 129 125
-4.2969 -1.6406 -1.0156 0 129 125
-3.8281 -1.7969 -1.1719 0 122 132
-3.8281 -1.6406 -1.1719 0 122 132
-3.9844 -1.7969 -1.0156 0 129 125
-3.8281 -1.7969 -1.0156 0 129 125
-3.9844 -1.6406 -1.0156 0 129 125
-4.2969 -1.4844 -1.0156 0 129 125
-3.8281 -1.4844 -1.1719 0 122 132
-3.9844 -1.4844 -1.0156 0 129 125
-3.8281 -1.3281 -1.0156 0 129 125
-4.2969 -1.6406 -0.8594 0 135 119
-4.2969 -1.4844 -0.8594 0 135 119
-4.2969 -1.3281 -0.8594 0 135 119
-3.5156 -2.4219 -1.1719 0 122 132
-3.5156 -2.2656 -1.1719 0 122 132
-3.6719 -2.1094 -1.1719 0 122 132
-3.5156 -2.1094 -1.0156 0 129 125
-3.0469 -1.9531 -1.0156 0 129 125
-3.6719 -1.7969 -1.1719 0 122 132
-3.6719 -1.6406 -1.0156 0 129 125
-3.6719 -1.4844 -1.1719 0 122 132
-3.6719 -1.4844 -1.0156 0 129 125
-3.6719 -1.3281 -1.0156 0 129 125
-3.3594 -1.4844 -1.1719 0 122 132
-3.2031 -1.4844 -1.1719 0 122 132
-3.2031 -1.3281 -1.1719 0 122 132
-3.3594 -1.4844 -1.0156 0 129 125
-3.0469 -1.7969 -1.0156 0 129 125
-3.0469 -1.6406 -1.0156 0 129 125
-3.0469 -1.4844 -1.1719 0 122 132
-3.0469 -1.4844 -1.0156 0 129 125
-2.8906 -1.4844 -1.0156 0 129 125
-3.0469 -1.3281 -1.0156 0 129 125
-2.8906 -1.3281 -1.0156 0 129 125
-4.9219 -1.1719 -0.8594 0 135 119
-4.9219 -1.0156 -0.8594 0 135 119
-4.6094 -1.1719 -0.8594 0 135 119
-4.6094 -1.0156 -0.8594 0 135 119
-4.9219 -0.7031 -0.7031 0 142 112
-4.6094 -0.8594 -0.8594 0 135 119
-4.6094 -0.7031 -0.8594 0 135 119
-3.8281 -1.1719 -1.0156 0 129 125
-3.8281 -1.0156 -1.0156 0 129 125
-3.8281 -0.8594 -1.0156 0 129 125
-3.8281 -0.7031 -1.0156 0 129 125
-4.2969 -1.1719 -0.8594 0 135 119
-4.2969 -1.0156 -0.8594 0 135 119
-3.9844 -1.1719 -0.8594 0 135 119
-3.9844 -1.0156 -0.8594 0 135 119
-4.2969 -0.8594 -0.8594 0 135 119
-4.2969 -0.7031 -0.8594 0 135 119
-3.9844 -0.8594 -0.8594 0 135 119
-3.9844 -0.7031 -0.8594 0 135 119
-4.9219 -0.5469 -0.7031 0 142 112
-4.6094 -0.5469 -0.7031 0 142 112
-4.6094 -0.3906 -0.7031 0 142 112
-4.7656 -0.2344 -0.7031 0 142 112
-4.7656 -0.0781 -0.7031 0 142 112
-4.6094 -0.2344 -0.7031 0 142 112
-4.6094 -0.0781 -0.7031 0 142 112
-3.8281 -0.5469 -1.0156 0 129 125
-3.8281 -0.3906 -1.0156 0 129 125
-3.8281 -0.2344 -1.0156 0 129 125
-3.8281 -0.0781 -1.0156 0 129 125
-4.2969 -0.5469 -0.7031 0 142 112
-4.2969 -0.3906 -0.7031 0 142 112
-3.9844 -0.5469 -0.8594 0 135 119
-3.9844 -0.3906 -0.7031 0 142 112
-4.2969 -0.2344 -0.7031 0 142 112
-4.2969 -0.0781 -0.7031 0 142 112
-3.9844 -0.0781 -0.7031 0 142 112
-3.6719 -1.1719 -1.0156 0 129 125
-3.6719 -1.0156 -1.0156 0 129 125
-3.2031 -1.1719 -1.1719 0 122 132
-3.2031 -1.0156 -1.1719 0 122 132
-3.6719 -0.8594 -1.0156 0 129 125
-3.3594 -0.8594 -1.1719 0 122 132
-3.2031 -0.8594 -1.1719 0 122 132
-3.2031 -0.7031 -1.1719 0 122 132
-3.6719 -1.0156 -0.8594 0 135 119
-3.6719 -0.8594 -0.8594 0 135 119
-3.6719 -0.7031 -0.8594 0 135 119
-3.3594 -0.7031 -0.8594 0 135 119
-3.2031 -0.7031 -0.8594 0 135 119
-3.0469 -1.1719 -1.1719 0 122 132
-3.0469 -1.0156 -1.1719 0 122 132
-2.8906 -1.0156 -1.1719 0 122 132
-3.0469 -0.8594 -1.1719 0 122 132
-2.8906 -0.8594 -1.1719 0 122 132
-3.0469 -0.7031 -1.1719 0 122 132
-2.8906 -0.7031 -1.1719 0 122 132
-2.5781 -0.8594 -1.1719 0 122 132
-2.7344 -0.7031 -1.1719 0 122 132
-2.5781 -0.7031 -1.1719 0 122 132
-2.8906 -1.0156 -0.8594 0 135 119
-3.0469 -0.8594 -0.8594 0 135 119
-2.8906 -0.8594 -0.8594 0 135 119
-3.0469 -0.7031 -0.8594 0 135 119
-2.8906 -0.7031 -0.8594 0 135 119
-2.7344 -0.8594 -0.8594 0 135 119
-3.6719 -0.5469 -1.0156 0 129 125
-3.6719 -0.3906 -1.0156 0 129 125
-3.3594 -0.5469 -1.1719 0 122 132
-3.2031 -0.5469 -1.1719 0 122 132
-3.3594 -0.3906 -1.0156 0 129 125
-3.2031 -0.3906 -1.0156 0 129 125
-3.6719 -0.2344 -1.0156 0 129 125
-3.6719 -0.0781 -1.0156 0 129 125
-3.2031 -0.2344 -1.0156 0 129 125
-3.2031 -0.0781 -1.0156 0 129 125
-3.6719 -0.5469 -0.8594 0 135 119
-3.3594 -0.5469 -0.8594 0 135 119
-3.3594 -0.3906 -0.8594 0 135 119
-3.2031 -0.3906 -0.8594 0 135 119
-3.6719 -0.2344 -0.7031 0 142 112
-3.5156 -0.2344 -0.7031 0 142 112
-3.6719 -0.0781 -0.7031 0 142 112
-3.0469 -0.5469 -1.1719 0 122 132
-2.8906 -0.5469 -1.1719 0 122 132
-3.0469 -0.3906 -1.1719 0 122 132
-2.8906 -0.3906 -1.1719 0 122 132
-2.7344 -0.5469 -1.1719 0 122 132
-2.7344 -0.3906 -1.1719 0 122 132
-2.5781 -0.3906 -1.1719 0 122 132
-3.0469 -0.2344 -1.1719 0 122 132
-2.8906 -0.2344 -1.1719 0 122 132
-3.0469 -0.0781 -1.0156 0 129 125
-2.8906 -0.0781 -1.0156 0 129 125
-2.7344 -0.2344 -1.1719 0 122 132
-2.5781 -0.2344 -1.1719 0 122 132
-2.7344 -0.0781 -1.1719 0 122 132
-2.5781 -0.0781 -1.1719 0 122 132
-3.0469 -0.5469 -0.8594 0 135 119
-3.0469 -0.3906 -0.8594 0 135 119
-2.7344 -0.5469 -0.8594 0 135 119
-2.5781 -0.3906 -0.8594 0 135 119
-3.0469 -0.2344 -0.8594 0 135 119
-2.7344 -0.2344 -0.8594 0 135 119
-2.5781 -0.0781 -0.8594 0 135 119
-2.4219 -2.4219 -1.4844 0 109 145
-2.2656 -2.4219 -1.4844 0 109 145
-2.4219 -2.2656 -1.4844 0 109 145
-2.2656 -2.2656 -1.4844 0 109 145
-2.1094 -2.2656 -1.4844 0 109 145
-1.9531 -2.2656 -1.4844 0 109 145
-2.2656 -2.1094 -1.4844 0 109 145
-2.4219 -1.9531 -1.4844 0 109 145
-2.2656 -1.9531 -1.4844 0 109 145
-2.1094 -1.9531 -1.4844 0 109 145
-1.9531 -1.9531 -1.4844 0 109 145
-1.7969 -2.4219 -1.4844 0 109 145
-1.6406 -2.4219 -1.4844 0 109 145
-1.7969 -2.2656 -1.4844 0 109 145
-1.6406 -2.2656 -1.4844 0 109 145
-1.3281 -2.4219 -1.4844 0 109 145
-1.4844 -2.2656 -1.4844 0 109 145
-1.3281 -2.2656 -1.4844 0 109 145
-1.7969 -2.1094 -1.4844 0 109 145
-1.6406 -2.1094 -1.4844 0 109 145
-1.7969 -1.9531 -1.4844 0 109 145
-1.6406 -1.9531 -1.4844 0 109 145
-1.4844 -2.1094 -1.4844 0 109 145
-2.2656 -1.7969 -1.4844 0 109 145
-2.2656 -1.6406 -1.4844 0 109 145
-2.4219 -1.7969 -1.3281 0 116 138
-2.4219 -1.6406 -1.3281 0 116 138
-2.2656 -1.6406 -1.3281 0 116 138
-2.1094 -1.7969 -1.4844 0 109 145
-1.9531 -1.7969 -1.4844 0 109 145
-2.1094 -1.6406 -1.4844 0 109 145
-1.9531 -1.6406 -1.3281 0 116 138
-2.4219 -1.4844 -1.3281 0 116 138
-2.2656 -1.4844 -1.3281 0 116 138
-2.4219 -1.3281 -1.3281 0 116 138
-2.2656 -1.3281 -1.3281 0 116 138
-2.1094 -1.4844 -1.3281 0 116 138
-1.9531 -1.3281 -1.3281 0 116 138
-1.7969 -1.7969 -1.4844 0 109 145
-1.7969 -1.6406 -1.4844 0 109 145
-1.6406 -1.6406 -1.4844 0 109 145
-1.4844 -1.7969 -1.4844 0 109 145
-1.3281 -1.7969 -1.4844 0 109 145
-1.4844 -1.6406 -1.4844 0 109 145
-1.3281 -1.6406 -1.4844 0 109 145
-1.7969 -1.4844 -1.4844 0 109 145
-1.6406 -1.4844 -1.4844 0 109 145
-1.7969 -1.3281 -1.4844 0 109 145
-1.6406 -1.3281 -1.4844 0 109 145
-1.7969 -1.3281 -1.3281 0 116 138
-1.4844 -1.4844 -1.4844 0 109 145
-1.3281 -1.4844 -1.4844 0 109 145
-1.4844 -1.3281 -1.4844 0 109 145
-1.3281 -1.3281 -1.4844 0 109 145
-1.1719 -2.4219 -1.4844 0 109 145
-1.1719 -2.2656 -1.4844 0 109 145
-1.1719 -1.3281 -1.4844 0 109 145
-2.4219 -1.1719 -1.3281 0 116 138
-2.2656 -1.1719 -1.3281 0 116 138
-2.4219 -1.0156 -1.3281 0 116 138
-2.2656 -1.0156 -1.3281 0 116 138
-2.1094 -1.1719 -1.3281 0 116 138
-1.9531 -1.1719 -1.3281 0 116 138
-2.1094 -1.0156 -1.3281 0 116 138
-2.4219 -0.8594 -1.3281 0 116 138
-2.2656 -0.8594 -1.3281 0 116 138
-2.4219 -0.7031 -1.3281 0 116 138
-2.2656 -0.7031 -1.3281 0 116 138
-2.1094 -0.8594 -1.3281 0 116 138
-1.9531 -0.8594 -1.3281 0 116 138
-2.1094 -0.7031 -1.3281 0 116 138
-1.9531 -0.7031 -1.3281 0 116 138
-1.7969 -1.1719 -1.3281 0 116 138
-1.7969 -1.0156 -1.3281 0 116 138
-1.6406 -1.0156 -1.3281 0 116 138
-1.3281 -1.1719 -1.3281 0 116 138
-1.4844 -1.0156 -1.3281 0 116 138
-1.7969 -0.8594 -1.3281 0 116 138
-1.6406 -0.8594 -1.3281 0 116 138
-1.7969 -0.7031 -1.3281 0 116 138
-1.6406 -0.7031 -1.3281 0 116 138
-1.3281 -0.8594 -1.3281 0 116 138
-1.4844 -0.7031 -1.3281 0 116 138
-1.3281 -0.7031 -1.3281 0 116 138
-2.4219 -0.5469 -1.3281 0 116 138
-2.1094 -0.5469 -1.3281 0 116 138
-1.7969 -0.5469 -1.3281 0 116 138
-1.6406 -0.5469 -1.3281 0 116 138
-1.4844 -0.5469 -1.3281 0 116 138
-1.3281 -0.5469 -1.3281 0 116 138
-1.4844 -0.3906 -1.3281 0 116 138
-1.1719 -1.0156 -1.3281 0 116 138
-1.1719 -0.8594 -1.3281 0 116 138
-1.0156 -0.7031 -1.3281 0 116 138
-0.8594 -0.8594 -1.3281 0 116 138
-0.8594 -0.7031 -1.3281 0 116 138
-1.1719 -0.5469 -1.3281 0 116 138
-1.0156 -0.5469 -1.3281 0 116 138
-1.1719 -0.3906 -1.3281 0 116 138
-1.0156 -0.3906 -1.3281 0 116 138
-0.8594 -0.5469 -1.3281 0 116 138
-0.7031 -0.5469 -1.3281 0 116 138
-0.7031 -0.3906 -1.3281 0 116 138
-1.1719 -0.2344 -1.3281 0 116 138
-0.8594 -0.2344 -1.3281 0 116 138
-0.5469 -0.5469 -1.3281 0 116 138
-0.5469 -0.3906 -1.3281 0 116 138
-2.4219 -1.0156 -0.8594 0 135 119
-2.4219 -0.8594 -0.8594 0 135 119
-2.2656 -0.7031 -0.8594 0 135 119
-2.2656 -0.5469 -1.1719 0 122 132
-2.4219 -0.3906 -1.1719 0 122 132
-1.9531 -0.3906 -1.1719 0 122 132
-2.2656 -0.2344 -1.1719 0 122 132
-2.4219 -0.0781 -1.1719 0 122 132
-2.2656 -0.0781 -1.1719 0 122 132
-2.1094 -0.2344 -1.1719 0 122 132
-1.9531 -0.2344 -1.1719 0 122 132
-2.1094 -0.0781 -1.1719 0 122 132
-1.9531 -0.0781 -1.1719 0 122 132
-2.2656 -0.5469 -0.8594 0 135 119
-2.2656 -0.3906 -0.8594 0 135 119
-2.1094 -0.3906 -0.8594 0 135 119
-2.4219 -0.2344 -0.8594 0 135 119
-1.7969 -0.3906 -1.1719 0 122 132
-1.4844 -0.3906 -1.1719 0 122 132
-1.6406 -0.2344 -1.1719 0 122 132
-1.7969 -0.0781 -1.1719 0 122 132
-1.6406 -0.0781 -1.1719 0 122 132
-1.3281 -0.2344 -1.1719 0 122 132
-1.4844 -0.0781 -1.1719 0 122 132
-1.4844 -0.2344 -0.7031 0 142 112
-1.3281 -0.2344 -0.7031 0 142 112
-1.4844 -0.0781 -0.7031 0 142 112
-1.0156 -0.2344 -1.1719 0 122 132
-1.1719 -0.0781 -1.1719 0 122 132
-1.0156 -0.0781 -1.1719 0 122 132
-0.8594 -0.2344 -1.1719 0 122 132
-0.7031 -0.2344 -1.1719 0 122 132
-0.8594 -0.0781 -0.7031 0 142 112
-0.5469 -0.3906 -1.1719 0 122 132
-0.3906 -0.2344 -1.1719 0 122 132
-0.5469 -0.0781 -1.1719 0 122 132
-0.3906 -0.0781 -1.1719 0 122 132
-0.2344 -0.0781 -1.1719 0 122 132
-0.0781 -0.0781 -1.1719 0 122 132
-0.3906 -0.3906 -0.7031 0 142 112
-0.2344 -0.3906 -0.7031 0 142 112
-0.3906 -0.2344 -0.7031 0 142 112
-0.2344 -0.2344 -0.7031 0 142 112
-0.2344 -0.0781 -0.7031 0 142 112
-0.7031 -0.8594 -0.3906 0 154 100
-9.2969 -0.7031 0.5469 0 193 61
-9.1406 -0.7031 0.5469 0 193 61
-8.9844 -0.5469 0.5469 0 193 61
-8.8281 -0.3906 0.5469 0 193 61
-9.2969 -0.0781 0.5469 0 193 61
-9.7656 -0.2344 0.7031 0 200 54
-8.9844 -0.5469 0.7031 0 200 54
-9.1406 -0.0781 0.7031 0 200 54
-8.5156 -1.1719 0.5469 0 193 61
-8.0469 -1.0156 0.5469 0 193 61
-8.5156 -0.5469 0.5469 0 193 61
-8.5156 -0.3906 0.5469 0 193 61
-7.8906 -0.2344 0.5469 0 193 61
-7.7344 -0.0781 0.5469 0 193 61
-8.3594 -0.3906 0.7031 0 200 54
-7.4219 -0.7031 0.5469 0 193 61
-6.9531 -0.8594 0.5469 0 193 61
-6.7969 -0.7031 0.5469 0 193 61
-6.9531 -0.5469 0.5469 0 193 61
-7.4219 -0.2344 0.5469 0 193 61
-7.2656 -0.0781 0.5469 0 193 61
-7.1094 -0.0781 0.5469 0 193 61
-6.6406 -0.5469 0.5469 0 193 61
-6.7969 -0.2344 0.5469 0 193 61
-6.6406 -0.0781 0.5469 0 193 61
-6.4844 -0.2344 0.5469 0 193 61
-3.2031 -0.0781 1.1719 0 219 35
-2.8906 -0.0781 0.8594 0 206 48
-3.0469 -0.0781 1.0156 0 213 41
-2.8906 -0.0781 1.0156 0 213 41
-3.0469 -0.2344 1.1719 0 219 35
-3.0469 -0.0781 1.1719 0 219 35
-19.2969 -5.0781 5.0781 125 129 0
-19.1406 -4.7656 5.2344 132 122 0
-18.8281 -4.7656 5.0781 125 129 0
-19.1406 -4.4531 5.2344 132 122 0
-19.2969 -4.4531 5.5469 145 109 0
-19.2969 -3.9844 5.0781 125 129 0
-19.1406 -3.9844 5.0781 125 129 0
-19.1406 -3.8281 5.0781 125 129 0
-19.7656 -3.6719 5.0781 125 129 0
-19.7656 -3.6719 5.2344 132 122 0
-19.6094 -3.6719 5.0781 125 129 0
-19.6094 -3.3594 5.0781 125 129 0
-19.6094 -1.4844 5.5469 145 109 0
-18.8281 -1.3281 5.0781 125 129 0
-19.9219 -0.7031 5.3906 138 116 0
-19.7656 -0.8594 5.5469 145 109 0
-19.2969 -0.0781 5.3906 138 116 0
-19.9219 -1.0156 5.7031 151 103 0
-19.7656 -1.0156 5.8594 158 96 0
-17.7344 -0.8594 5.2344 132 122 0
-17.7344 -0.7031 5.2344 132 122 0
-17.7344 -1.0156 5.3906 138 116 0
-17.7344 -0.8594 5.3906 138 116 0
-17.5781 -0.7031 5.5469 145 109 0
-17.8906 -0.3906 5.2344 132 122 0
-17.7344 -0.5469 5.2344 132 122 0
-17.7344 -0.3906 5.2344 132 122 0
-17.5781 -0.2344 5.2344 132 122 0
-17.5781 -0.0781 5.2344 132 122 0
-17.7344 -0.2344 5.3906 138 116 0
-17.4219 -1.3281 5.3906 138 116 0
-17.1094 -1.4844 5.3906 138 116 0
-16.6406 -1.4844 5.2344 132 122 0
-16.4844 -1.3281 5.0781 125 129 0
-17.2656 -1.1719 5.2344 132 122 0
-17.1094 -0.8594 5.0781 125 129 0
-17.4219 -1.0156 5.5469 145 109 0
-17.4219 -0.8594 5.5469 145 109 0
-17.4219 -0.7031 5.5469 145 109 0
-17.4219 -0.3906 5.0781 125 129 0
-16.4844 -0.2344 5.0781 125 129 0
-16.1719 -0.8594 5.0781 125 129 0
-15.7031 -0.0781 5.0781 125 129 0
0.0781 -14.1406 -2.8906 0 51 203
0.3906 -13.8281 -2.8906 0 51 203
0.5469 -13.3594 -2.7344 0 58 196
0.0781 -12.8906 -2.7344 0 58 196
0.2344 -12.5781 -2.7344 0 58 196
0.7031 -13.0469 -2.7344 0 58 196
0.8594 -12.7344 -2.5781 0 64 190
0.8594 -12.5781 -2.5781 0 64 190
0.3906 -12.2656 -2.7344 0 58 196
0.0781 -11.9531 -2.5781 0 64 190
0.5469 -11.9531 -2.5781 0 64 190
1.0156 -11.9531 -2.5781 0 64 190
0.0781 -11.6406 -2.5781 0 64 190
0.2344 -11.6406 -2.5781 0 64 190
0.5469 -11.6406 -2.5781 0 64 190
0.2344 -11.3281 -2.5781 0 64 190
0.7031 -11.4844 -2.5781 0 64 190
0.0781 -11.7969 -2.4219 0 71 183
0.2344 -11.4844 -2.4219 0 71 183
1.1719 -11.7969 -2.4219 0 71 183
1.3281 -11.4844 -2.4219 0 71 183
1.7969 -11.4844 -2.4219 0 71 183
1.7969 -11.3281 -2.4219 0 71 183
0.3906 -11.1719 -2.4219 0 71 183
0.5469 -11.0156 -2.4219 0 71 183
0.3906 -10.8594 -2.4219 0 71 183
0.8594 -11.1719 -2.4219 0 71 183
1.0156 -11.0156 -2.4219 0 71 183
0.7031 -10.7031 -2.2656 0 77 177
1.1719 -10.7031 -2.4219 0 71 183
0.3906 -10.5469 -2.4219 0 71 183
0.5469 -10.3906 -2.4219 0 71 183
0.8594 -10.5469 -2.2656 0 77 177
1.1719 -10.5469 -2.4219 0 71 183
0.8594 -10.2344 -2.2656 0 77 177
0.7031 -10.0781 -2.2656 0 77 177
1.4844 -11.1719 -2.4219 0 71 183
1.4844 -11.0156 -2.4219 0 71 183
1.9531 -11.0156 -2.4219 0 71 183
2.1094 -10.8594 -2.4219 0 71 183
2.1094 -10.7031 -2.2656 0 77 177
1.3281 -10.3906 -2.2656 0 77 177
1.4844 -10.0781 -2.2656 0 77 177
2.2656 -10.3906 -2.2656 0 77 177
2.4219 -10.2344 -2.2656 0 77 177
2.4219 -10.0781 -2.2656 0 77 177
0.8594 -9.9219 -2.2656 0 77 177
0.8594 -9.7656 -2.2656 0 77 177
1.0156 -9.6094 -2.2656 0 77 177
1.1719 -9.2969 -2.1094 0 83 171
1.1719 -9.1406 -2.1094 0 83 171
1.4844 -9.7656 -2.2656 0 77 177
1.6406 -9.6094 -2.2656 0 77 177
1.6406 -9.4531 -2.1094 0 83 171
1.7969 -9.2969 -2.1094 0 83 171
1.3281 -8.9844 -2.1094 0 83 171
1.3281 -8.8281 -2.1094 0 83 171
1.9531 -9.1406 -2.1094 0 83 171
1.9531 -8.9844 -2.1094 0 83 171
2.1094 -8.8281 -2.1094 0 83 171
2.1094 -8.6719 -2.1094 0 83 171
2.2656 -8.5156 -1.9531 0 90 164
2.2656 -8.3594 -1.9531 0 90 164
2.4219 -8.2031 -1.9531 0 90 164
2.5781 -9.7656 -2.2656 0 77 177
2.5781 -9.6094 -2.1094 0 83 171
2.7344 -9.4531 -2.1094 0 83 171
2.7344 -9.2969 -2.1094 0 83 171
2.8906 -8.9844 -2.1094 0 83 171
2.8906 -8.8281 -2.1094 0 83 171
2.8906 -8.6719 -1.9531 0 90 164
3.0469 -8.5156 -1.9531 0 90 164
3.0469 -8.3594 -1.9531 0 90 164
3.2031 -8.2031 -1.9531 0 90 164
3.2031 -8.0469 -1.9531 0 90 164
3.3594 -8.0469 -1.9531 0 90 164
3.3594 -7.8906 -1.9531 0 90 164
3.3594 -7.7344 -1.7969 0 96 158
3.5156 -7.5781 -1.7969 0 96 158
7.4219 -5.8594 -1.0156 0 129 125
7.2656 -5.7031 -1.0156 0 129 125
7.4219 -5.7031 -1.0156 0 129 125
7.4219 -5.7031 -0.8594 0 135 119
7.1094 -5.5469 -1.0156 0 129 125
7.1094 -5.3906 -1.0156 0 129 125
7.2656 -5.5469 -1.0156 0 129 125
7.4219 -5.5469 -1.0156 0 129 125
7.1094 -5.5469 -0.8594 0 135 119
7.1094 -5.3906 -0.8594 0 135 119
7.2656 -5.5469 -0.8594 0 135 119
7.4219 -5.5469 -0.8594 0 135 119
7.2656 -5.3906 -0.8594 0 135 119
7.4219 -5.3906 -0.8594 0 135 119
6.9531 -5.2344 -0.8594 0 135 119
7.1094 -5.2344 -0.8594 0 135 119
6.9531 -5.0781 -0.8594 0 135 119
7.2656 -5.2344 -0.8594 0 135 119
7.4219 -5.2344 -0.8594 0 135 119
7.2656 -5.0781 -0.8594 0 135 119
7.2656 -5.0781 -0.7031 0 142 112
7.4219 -5.0781 -0.7031 0 142 112
7.5781 -6.0156 -1.0156 0 129 125
7.7344 -6.0156 -1.0156 0 129 125
7.5781 -5.8594 -1.0156 0 129 125
7.5781 -5.7031 -1.0156 0 129 125
7.5781 -5.8594 -0.8594 0 135 119
7.5781 -5.7031 -0.8594 0 135 119
0.0781 -4.6094 -1.7969 0 96 158
0.2344 -4.6094 -1.7969 0 96 158
0.0781 -4.4531 -1.7969 0 96 158
0.2344 -4.4531 -1.7969 0 96 158
0.3906 -4.4531 -1.7969 0 96 158
0.5469 -4.4531 -1.7969 0 96 158
0.7031 -4.4531 -1.7969 0 96 158
0.0781 -4.1406 -1.7969 0 96 158
0.3906 -4.2969 -1.7969 0 96 158
0.0781 -3.9844 -1.7969 0 96 158
0.2344 -3.9844 -1.6406 0 103 151
0.3906 -3.9844 -1.7969 0 96 158
0.5469 -3.9844 -1.7969 0 96 158
0.7031 -4.2969 -1.7969 0 96 158
0.8594 -4.2969 -1.7969 0 96 158
0.8594 -4.1406 -1.7969 0 96 158
1.0156 -4.1406 -1.7969 0 96 158
1.1719 -4.1406 -1.7969 0 96 158
1.0156 -4.1406 -1.6406 0 103 151
0.7031 -3.8281 -1.6406 0 103 151
1.1719 -3.9844 -1.6406 0 103 151
1.3281 -4.1406 -1.7969 0 96 158
1.3281 -3.9844 -1.7969 0 96 158
1.4844 -3.9844 -1.6406 0 103 151
1.4844 -3.8281 -1.6406 0 103 151
1.6406 -3.8281 -1.6406 0 103 151
0.0781 -3.5156 -1.6406 0 103 151
0.0781 -3.3594 -1.6406 0 103 151
0.2344 -3.3594 -1.6406 0 103 151
0.8594 -3.6719 -1.6406 0 103 151
1.0156 -3.6719 -1.6406 0 103 151
1.6406 -3.6719 -1.6406 0 103 151
1.7969 -3.6719 -1.6406 0 103 151
1.6406 -3.2031 -0.8594 0 135 119
1.4844 -3.0469 -0.8594 0 135 119
1.4844 -2.8906 -0.8594 0 135 119
1.6406 -3.0469 -0.8594 0 135 119
1.6406 -2.8906 -0.8594 0 135 119
1.7969 -2.8906 -0.8594 0 135 119
1.4844 -2.7344 -0.8594 0 135 119
1.4844 -2.5781 -0.8594 0 135 119
1.4844 -2.7344 -0.7031 0 142 112
1.4844 -2.5781 -0.7031 0 142 112
1.6406 -2.7344 -0.8594 0 135 119
1.7969 -2.7344 -0.8594 0 135 119
1.6406 -2.5781 -0.8594 0 135 119
1.7969 -2.5781 -0.8594 0 135 119
1.6406 -2.5781 -0.7031 0 142 112
3.6719 -4.4531 -1.4844 0 109 145
3.6719 -4.2969 -1.4844 0 109 145
3.6719 -4.1406 -1.4844 0 109 145
3.6719 -3.9844 -1.4844 0 109 145
3.6719 -3.9844 -1.3281 0 116 138
3.6719 -3.8281 -1.3281 0 116 138
3.8281 -4.6094 -1.4844 0 109 145
3.9844 -4.6094 -1.4844 0 109 145
3.8281 -4.4531 -1.4844 0 109 145
3.9844 -4.4531 -1.4844 0 109 145
3.8281 -4.2969 -1.4844 0 109 145
3.9844 -4.2969 -1.4844 0 109 145
3.8281 -4.1406 -1.4844 0 109 145
3.9844 -4.1406 -1.4844 0 109 145
4.1406 -4.1406 -1.4844 0 109 145
4.2969 -4.1406 -1.4844 0 109 145
3.8281 -3.9844 -1.4844 0 109 145
3.9844 -3.9844 -1.4844 0 109 145
3.8281 -3.8281 -1.4844 0 109 145
3.9844 -3.8281 -1.4844 0 109 145
3.9844 -3.8281 -1.3281 0 116 138
4.1406 -3.9844 -1.4844 0 109 145
4.2969 -3.9844 -1.4844 0 109 145
4.1406 -3.8281 -1.4844 0 109 145
4.2969 -3.8281 -1.4844 0 109 145
3.5156 -3.6719 -1.3281 0 116 138
3.6719 -3.6719 -1.3281 0 116 138
3.5156 -3.5156 -1.3281 0 116 138
3.6719 -3.5156 -1.3281 0 116 138
3.5156 -3.3594 -1.3281 0 116 138
3.6719 -3.3594 -1.3281 0 116 138
3.5156 -3.2031 -1.3281 0 116 138
3.6719 -3.2031 -1.3281 0 116 138
3.5156 -3.0469 -1.3281 0 116 138
3.6719 -3.0469 -1.3281 0 116 138
3.5156 -2.8906 -1.3281 0 116 138
3.6719 -2.8906 -1.3281 0 116 138
3.3594 -2.7344 -1.3281 0 116 138
3.5156 -2.7344 -1.3281 0 116 138
3.6719 -2.7344 -1.3281 0 116 138
3.5156 -2.5781 -1.3281 0 116 138
3.8281 -3.6719 -1.3281 0 116 138
3.9844 -3.6719 -1.3281 0 116 138
3.8281 -3.5156 -1.3281 0 116 138
3.9844 -3.5156 -1.3281 0 116 138
4.1406 -3.6719 -1.4844 0 109 145
4.2969 -3.6719 -1.4844 0 109 145
4.1406 -3.5156 -1.4844 0 109 145
4.2969 -3.5156 -1.4844 0 109 145
4.1406 -3.5156 -1.3281 0 116 138
3.8281 -3.3594 -1.3281 0 116 138
3.9844 -3.3594 -1.3281 0 116 138
3.8281 -3.2031 -1.3281 0 116 138
3.9844 -3.2031 -1.3281 0 116 138
4.1406 -3.3594 -1.4844 0 109 145
4.2969 -3.3594 -1.4844 0 109 145
4.2969 -3.2031 -1.4844 0 109 145
4.1406 -3.3594 -1.3281 0 116 138
4.1406 -3.2031 -1.3281 0 116 138
4.2969 -3.2031 -1.3281 0 116 138
4.4531 -3.6719 -1.4844 0 109 145
4.4531 -3.5156 -1.4844 0 109 145
4.6094 -3.5156 -1.4844 0 109 145
4.4531 -3.3594 -1.4844 0 109 145
4.6094 -3.3594 -1.4844 0 109 145
4.4531 -3.2031 -1.4844 0 109 145
4.6094 -3.2031 -1.4844 0 109 145
3.8281 -3.0469 -1.3281 0 116 138
3.9844 -3.0469 -1.3281 0 116 138
3.8281 -2.8906 -1.3281 0 116 138
3.9844 -2.8906 -1.3281 0 116 138
4.1406 -3.0469 -1.3281 0 116 138
4.2969 -3.0469 -1.3281 0 116 138
4.1406 -2.8906 -1.3281 0 116 138
4.2969 -2.8906 -1.3281 0 116 138
3.8281 -2.7344 -1.3281 0 116 138
3.9844 -2.7344 -1.3281 0 116 138
3.8281 -2.5781 -1.3281 0 116 138
3.9844 -2.5781 -1.3281 0 116 138
4.1406 -2.7344 -1.3281 0 116 138
4.2969 -2.7344 -1.3281 0 116 138
4.1406 -2.5781 -1.3281 0 116 138
4.2969 -2.5781 -1.3281 0 116 138
4.4531 -3.0469 -1.4844 0 109 145
4.6094 -3.0469 -1.4844 0 109 145
4.4531 -2.8906 -1.4844 0 109 145
4.6094 -2.8906 -1.4844 0 109 145
4.4531 -2.8906 -1.3281 0 116 138
4.7656 -3.0469 -1.4844 0 109 145
4.9219 -3.0469 -1.4844 0 109 145
4.7656 -2.8906 -1.4844 0 109 145
4.9219 -2.8906 -1.4844 0 109 145
4.6094 -2.7344 -1.4844 0 109 145
4.6094 -2.7344 -1.3281 0 116 138
4.7656 -2.7344 -1.4844 0 109 145
4.9219 -2.7344 -1.4844 0 109 145
4.7656 -2.5781 -1.4844 0 109 145
4.9219 -2.5781 -1.4844 0 109 145
3.2031 -2.5781 -1.1719 0 122 132
3.3594 -2.5781 -1.1719 0 122 132
3.6719 -2.7344 -1.1719 0 122 132
3.6719 -2.5781 -1.1719 0 122 132
1.1719 -1.6406 -0.7031 0 142 112
0.8594 -1.3281 -0.7031 0 142 112
1.0156 -1.4844 -0.7031 0 142 112
1.1719 -1.4844 -0.7031 0 142 112
1.0156 -1.3281 -0.7031 0 142 112
1.1719 -1.3281 -0.7031 0 142 112
1.4844 -2.4219 -0.7031 0 142 112
1.4844 -2.2656 -0.7031 0 142 112
1.7969 -2.4219 -0.8594 0 135 119
1.7969 -2.2656 -0.8594 0 135 119
1.6406 -2.4219 -0.7031 0 142 112
1.7969 -2.4219 -0.7031 0 142 112
1.6406 -2.2656 -0.7031 0 142 112
1.7969 -2.2656 -0.7031 0 142 112
1.3281 -2.1094 -0.7031 0 142 112
1.4844 -2.1094 -0.7031 0 142 112
1.3281 -1.9531 -0.7031 0 142 112
1.4844 -1.9531 -0.7031 0 142 112
1.6406 -2.1094 -0.7031 0 142 112
1.7969 -2.1094 -0.7031 0 142 112
1.6406 -1.9531 -0.7031 0 142 112
1.7969 -1.9531 -0.7031 0 142 112
1.9531 -2.4219 -0.8594 0 135 119
1.9531 -2.2656 -0.8594 0 135 119
1.9531 -2.1094 -0.8594 0 135 119
1.9531 -2.1094 -0.7031 0 142 112
1.9531 -1.9531 -0.7031 0 142 112
1.3281 -1.7969 -0.7031 0 142 112
1.4844 -1.7969 -0.7031 0 142 112
1.3281 -1.6406 -0.7031 0 142 112
1.4844 -1.6406 -0.7031 0 142 112
1.6406 -1.7969 -0.7031 0 142 112
1.7969 -1.7969 -0.7031 0 142 112
1.6406 -1.6406 -0.7031 0 142 112
1.7969 -1.6406 -0.7031 0 142 112
1.4844 -1.4844 -0.7031 0 142 112
1.3281 -1.3281 -0.7031 0 142 112
1.4844 -1.3281 -0.7031 0 142 112
1.6406 -1.4844 -0.7031 0 142 112
1.7969 -1.4844 -0.7031 0 142 112
1.6406 -1.3281 -0.7031 0 142 112
1.7969 -1.3281 -0.7031 0 142 112
1.9531 -1.7969 -0.7031 0 142 112
1.9531 -1.6406 -0.7031 0 142 112
1.9531 -1.4844 -0.7031 0 142 112
2.1094 -1.4844 -0.7031 0 142 112
1.9531 -1.3281 -0.7031 0 142 112
0.3906 -0.7031 -0.7031 0 142 112
0.5469 -0.7031 -0.7031 0 142 112
0.8594 -1.1719 -0.7031 0 142 112
0.8594 -1.0156 -0.7031 0 142 112
1.0156 -1.1719 -0.7031 0 142 112
1.1719 -1.1719 -0.7031 0 142 112
1.0156 -1.0156 -0.7031 0 142 112
1.1719 -1.0156 -0.7031 0 142 112
0.7031 -0.8594 -0.7031 0 142 112
0.8594 -0.8594 -0.7031 0 142 112
0.7031 -0.7031 -0.7031 0 142 112
0.8594 -0.7031 -0.7031 0 142 112
1.0156 -0.8594 -0.7031 0 142 112
1.1719 -0.8594 -0.7031 0 142 112
1.0156 -0.7031 -0.7031 0 142 112
1.1719 -0.7031 -0.7031 0 142 112
0.0781 -0.0781 -1.1719 0 122 132
0.2344 -0.0781 -1.1719 0 122 132
0.3906 -0.0781 -1.1719 0 122 132
0.5469 -0.0781 -1.1719 0 122 132
0.3906 -0.5469 -0.7031 0 142 112
0.5469 -0.5469 -0.7031 0 142 112
0.5469 -0.3906 -0.7031 0 142 112
0.0781 -0.2344 -0.7031 0 142 112
0.7031 -0.0781 -1.1719 0 122 132
0.8594 -0.0781 -1.1719 0 122 132
0.8594 -0.2344 -1.0156 0 129 125
0.8594 -0.0781 -1.0156 0 129 125
1.0156 -0.2344 -1.1719 0 122 132
1.1719 -0.2344 -1.1719 0 122 132
1.1719 -0.2344 -1.0156 0 129 125
1.0156 -0.0781 -1.0156 0 129 125
1.1719 -0.0781 -1.0156 0 129 125
0.7031 -0.5469 -0.7031 0 142 112
0.8594 -0.5469 -0.7031 0 142 112
1.0156 -0.5469 -0.7031 0 142 112
1.1719 -0.5469 -0.7031 0 142 112
0.2344 -0.5469 -0.5469 0 148 106
0.2344 -0.3906 -0.5469 0 148 106
0.3906 -0.5469 -0.5469 0 148 106
0.3906 -0.2344 -0.5469 0 148 106
0.5469 -0.2344 -0.5469 0 148 106
0.3906 -0.0781 -0.5469 0 148 106
0.5469 -0.0781 -0.5469 0 148 106
0.7031 -0.3906 -0.5469 0 148 106
1.0156 -0.5469 -0.5469 0 148 106
1.0156 -0.3906 -0.5469 0 148 106
1.1719 -0.3906 -0.5469 0 148 106
1.0156 -0.2344 -0.5469 0 148 106
1.1719 -0.2344 -0.5469 0 148 106
1.0156 -0.0781 -0.5469 0 148 106
1.1719 -0.0781 -0.5469 0 148 106
1.6406 -0.7031 -1.0156 0 129 125
1.3281 -1.1719 -0.7031 0 142 112
1.4844 -1.1719 -0.7031 0 142 112
1.3281 -1.0156 -0.7031 0 142 112
1.4844 -1.0156 -0.7031 0 142 112
1.6406 -1.1719 -0.7031 0 142 112
1.7969 -1.1719 -0.7031 0 142 112
1.6406 -1.0156 -0.7031 0 142 112
1.7969 -1.0156 -0.7031 0 142 112
1.3281 -0.8594 -0.7031 0 142 112
1.4844 -0.8594 -0.7031 0 142 112
1.3281 -0.7031 -0.7031 0 142 112
1.4844 -0.7031 -0.7031 0 142 112
1.6406 -0.8594 -0.7031 0 142 112
1.7969 -0.8594 -0.7031 0 142 112
1.6406 -0.7031 -0.7031 0 142 112
1.7969 -0.7031 -0.7031 0 142 112
2.4219 -1.0156 -1.1719 0 122 132
2.4219 -1.0156 -1.0156 0 129 125
1.9531 -0.7031 -1.1719 0 122 132
2.1094 -0.7031 -1.0156 0 129 125
2.4219 -0.8594 -1.0156 0 129 125
2.4219 -0.7031 -1.0156 0 129 125
1.9531 -1.1719 -0.7031 0 142 112
2.1094 -1.1719 -0.7031 0 142 112
1.9531 -1.0156 -0.7031 0 142 112
2.1094 -1.0156 -0.7031 0 142 112
2.2656 -1.0156 -0.7031 0 142 112
2.4219 -1.0156 -0.7031 0 142 112
1.9531 -0.8594 -0.7031 0 142 112
2.1094 -0.8594 -0.7031 0 142 112
1.9531 -0.7031 -0.7031 0 142 112
2.1094 -0.7031 -0.7031 0 142 112
2.2656 -0.8594 -0.7031 0 142 112
2.2656 -0.7031 -0.7031 0 142 112
2.4219 -0.7031 -0.7031 0 142 112
1.4844 -0.5469 -1.1719 0 122 132
1.3281 -0.3906 -1.1719 0 122 132
1.4844 -0.5469 -1.0156 0 129 125
1.3281 -0.3906 -1.0156 0 129 125
1.4844 -0.3906 -1.0156 0 129 125
1.7969 -0.5469 -1.0156 0 129 125
1.7969 -0.3906 -1.0156 0 129 125
1.3281 -0.2344 -1.0156 0 129 125
1.4844 -0.2344 -1.0156 0 129 125
1.3281 -0.0781 -1.0156 0 129 125
1.4844 -0.0781 -1.0156 0 129 125
1.7969 -0.2344 -1.0156 0 129 125
1.7969 -0.0781 -1.0156 0 129 125
1.6406 -0.5469 -0.7031 0 142 112
1.7969 -0.5469 -0.7031 0 142 112
1.7969 -0.3906 -0.7031 0 142 112
1.9531 -0.5469 -1.1719 0 122 132
1.9531 -0.5469 -1.0156 0 129 125
2.1094 -0.5469 -1.0156 0 129 125
1.9531 -0.3906 -1.0156 0 129 125
2.4219 -0.5469 -1.0156 0 129 125
2.2656 -0.3906 -1.0156 0 129 125
2.4219 -0.3906 -1.0156 0 129 125
1.9531 -0.2344 -1.0156 0 129 125
2.1094 -0.2344 -1.0156 0 129 125
2.1094 -0.0781 -1.0156 0 129 125
2.2656 -0.2344 -1.0156 0 129 125
2.2656 -0.0781 -1.0156 0 129 125
1.9531 -0.5469 -0.7031 0 142 112
2.1094 -0.5469 -0.7031 0 142 112
1.9531 -0.3906 -0.7031 0 142 112
2.4219 -0.5469 -0.7031 0 142 112
2.4219 -0.3906 -0.7031 0 142 112
1.6406 -0.8594 -0.5469 0 148 106
1.6406 -0.7031 -0.5469 0 148 106
2.1094 -0.7031 -0.5469 0 148 106
1.3281 -0.5469 -0.5469 0 148 106
1.4844 -0.5469 -0.5469 0 148 106
1.3281 -0.3906 -0.5469 0 148 106
1.4844 -0.3906 -0.5469 0 148 106
1.6406 -0.5469 -0.5469 0 148 106
1.7969 -0.5469 -0.5469 0 148 106
1.6406 -0.3906 -0.5469 0 148 106
1.7969 -0.3906 -0.5469 0 148 106
1.3281 -0.2344 -0.5469 0 148 106
1.4844 -0.2344 -0.5469 0 148 106
1.3281 -0.0781 -0.5469 0 148 106
1.7969 -0.2344 -0.5469 0 148 106
1.6406 -0.0781 -0.5469 0 148 106
1.7969 -0.0781 -0.5469 0 148 106
2.1094 -0.5469 -0.5469 0 148 106
2.1094 -0.3906 -0.5469 0 148 106
2.2656 -0.3906 -0.5469 0 148 106
1.9531 -0.2344 -0.5469 0 148 106
2.1094 -0.2344 -0.5469 0 148 106
2.1094 -0.0781 -0.5469 0 148 106
2.2656 -0.2344 -0.5469 0 148 106
2.2656 -0.0781 -0.5469 0 148 106
2.4219 -0.0781 -0.5469 0 148 106
3.8281 -2.4219 -1.3281 0 116 138
3.9844 -2.4219 -1.3281 0 116 138
3.9844 -2.2656 -1.3281 0 116 138
4.1406 -2.4219 -1.3281 0 116 138
4.2969 -2.4219 -1.3281 0 116 138
4.1406 -2.2656 -1.3281 0 116 138
4.2969 -2.2656 -1.3281 0 116 138
3.9844 -2.1094 -1.3281 0 116 138
4.1406 -2.1094 -1.3281 0 116 138
4.2969 -2.1094 -1.3281 0 116 138
4.1406 -1.9531 -1.3281 0 116 138
4.2969 -1.9531 -1.3281 0 116 138
4.6094 -2.4219 -1.3281 0 116 138
4.4531 -2.2656 -1.3281 0 116 138
4.9219 -2.4219 -1.4844 0 109 145
4.9219 -2.2656 -1.4844 0 109 145
4.7656 -2.4219 -1.3281 0 116 138
4.7656 -2.2656 -1.3281 0 116 138
4.9219 -2.2656 -1.3281 0 116 138
4.4531 -2.1094 -1.3281 0 116 138
4.6094 -2.1094 -1.3281 0 116 138
4.4531 -1.9531 -1.3281 0 116 138
4.6094 -1.9531 -1.3281 0 116 138
4.7656 -2.1094 -1.3281 0 116 138
4.9219 -2.1094 -1.3281 0 116 138
4.7656 -1.9531 -1.3281 0 116 138
4.1406 -1.7969 -1.3281 0 116 138
4.2969 -1.7969 -1.3281 0 116 138
4.1406 -1.6406 -1.3281 0 116 138
4.2969 -1.6406 -1.3281 0 116 138
4.2969 -1.4844 -1.3281 0 116 138
4.4531 -1.7969 -1.3281 0 116 138
4.6094 -1.7969 -1.3281 0 116 138
4.4531 -1.6406 -1.3281 0 116 138
4.6094 -1.6406 -1.3281 0 116 138
4.7656 -1.7969 -1.3281 0 116 138
4.9219 -1.7969 -1.3281 0 116 138
4.7656 -1.6406 -1.3281 0 116 138
4.9219 -1.6406 -1.3281 0 116 138
4.4531 -1.4844 -1.3281 0 116 138
4.6094 -1.4844 -1.3281 0 116 138
4.6094 -1.3281 -1.3281 0 116 138
4.7656 -1.4844 -1.3281 0 116 138
4.9219 -1.4844 -1.3281 0 116 138
4.7656 -1.3281 -1.3281 0 116 138
4.9219 -1.3281 -1.3281 0 116 138
4.6094 -1.1719 -1.3281 0 116 138
4.7656 -1.1719 -1.3281 0 116 138
4.9219 -1.1719 -1.3281 0 116 138
4.9219 -1.0156 -1.3281 0 116 138
3.0469 -2.2656 -1.1719 0 122 132
3.0469 -2.1094 -1.1719 0 122 132
3.0469 -1.9531 -1.1719 0 122 132
3.2031 -2.4219 -1.1719 0 122 132
3.3594 -2.4219 -1.1719 0 122 132
3.2031 -2.2656 -1.1719 0 122 132
3.3594 -2.2656 -1.1719 0 122 132
3.5156 -2.4219 -1.1719 0 122 132
3.6719 -2.4219 -1.1719 0 122 132
3.5156 -2.2656 -1.1719 0 122 132
3.6719 -2.2656 -1.1719 0 122 132
3.2031 -2.1094 -1.1719 0 122 132
3.3594 -2.1094 -1.1719 0 122 132
3.2031 -1.9531 -1.1719 0 122 132
3.3594 -1.9531 -1.1719 0 122 132
3.5156 -2.1094 -1.1719 0 122 132
3.6719 -2.1094 -1.1719 0 122 132
3.5156 -1.9531 -1.1719 0 122 132
3.6719 -1.9531 -1.1719 0 122 132
2.8906 -1.7969 -1.1719 0 122 132
3.0469 -1.7969 -1.1719 0 122 132
2.8906 -1.6406 -1.1719 0 122 132
3.0469 -1.6406 -1.1719 0 122 132
2.7344 -1.4844 -1.1719 0 122 132
2.5781 -1.3281 -1.1719 0 122 132
2.7344 -1.3281 -1.1719 0 122 132
2.8906 -1.4844 -1.1719 0 122 132
3.0469 -1.4844 -1.1719 0 122 132
2.8906 -1.3281 -1.1719 0 122 132
3.0469 -1.3281 -1.1719 0 122 132
3.2031 -1.7969 -1.1719 0 122 132
3.3594 -1.7969 -1.1719 0 122 132
3.2031 -1.6406 -1.1719 0 122 132
3.3594 -1.6406 -1.1719 0 122 132
3.5156 -1.7969 -1.1719 0 122 132
3.6719 -1.7969 -1.1719 0 122 132
3.5156 -1.6406 -1.1719 0 122 132
3.6719 -1.6406 -1.1719 0 122 132
3.2031 -1.4844 -1.1719 0 122 132
3.3594 -1.4844 -1.1719 0 122 132
3.2031 -1.3281 -1.1719 0 122 132
3.3594 -1.3281 -1.1719 0 122 132
3.5156 -1.4844 -1.1719 0 122 132
3.6719 -1.4844 -1.1719 0 122 132
3.5156 -1.3281 -1.1719 0 122 132
3.6719 -1.3281 -1.1719 0 122 132
3.8281 -2.4219 -1.1719 0 122 132
3.8281 -2.2656 -1.1719 0 122 132
3.8281 -2.1094 -1.1719 0 122 132
3.9844 -2.1094 -1.1719 0 122 132
3.8281 -1.9531 -1.1719 0 122 132
3.9844 -1.9531 -1.1719 0 122 132
3.8281 -1.7969 -1.1719 0 122 132
3.9844 -1.7969 -1.1719 0 122 132
3.8281 -1.6406 -1.1719 0 122 132
3.9844 -1.6406 -1.1719 0 122 132
4.1406 -1.7969 -1.1719 0 122 132
4.1406 -1.6406 -1.1719 0 122 132
3.8281 -1.4844 -1.1719 0 122 132
3.9844 -1.4844 -1.1719 0 122 132
3.8281 -1.3281 -1.1719 0 122 132
3.9844 -1.3281 -1.1719 0 122 132
4.1406 -1.4844 -1.1719 0 122 132
4.2969 -1.4844 -1.1719 0 122 132
4.1406 -1.3281 -1.1719 0 122 132
4.2969 -1.3281 -1.1719 0 122 132
4.4531 -1.4844 -1.1719 0 122 132
4.4531 -1.3281 -1.1719 0 122 132
2.5781 -1.1719 -1.1719 0 122 132
2.7344 -1.1719 -1.1719 0 122 132
2.5781 -1.0156 -1.1719 0 122 132
2.8906 -1.1719 -1.1719 0 122 132
3.0469 -1.1719 -1.1719 0 122 132
2.8906 -1.0156 -1.1719 0 122 132
3.0469 -1.0156 -1.1719 0 122 132
2.5781 -0.8594 -1.1719 0 122 132
2.7344 -0.8594 -1.1719 0 122 132
2.7344 -0.7031 -1.1719 0 122 132
2.5781 -0.8594 -1.0156 0 129 125
2.5781 -0.7031 -1.0156 0 129 125
3.0469 -0.8594 -1.1719 0 122 132
3.0469 -0.7031 -1.1719 0 122 132
2.8906 -0.8594 -1.0156 0 129 125
2.8906 -0.7031 -1.0156 0 129 125
3.2031 -1.1719 -1.1719 0 122 132
3.3594 -1.1719 -1.1719 0 122 132
3.2031 -1.0156 -1.1719 0 122 132
3.3594 -1.0156 -1.1719 0 122 132
3.5156 -1.1719 -1.1719 0 122 132
3.6719 -1.1719 -1.1719 0 122 132
3.5156 -1.0156 -1.1719 0 122 132
3.6719 -1.0156 -1.1719 0 122 132
3.2031 -0.8594 -1.1719 0 122 132
3.3594 -0.8594 -1.1719 0 122 132
3.2031 -0.7031 -1.1719 0 122 132
3.3594 -0.7031 -1.1719 0 122 132
3.5156 -0.8594 -1.1719 0 122 132
3.6719 -0.8594 -1.1719 0 122 132
3.5156 -0.7031 -1.1719 0 122 132
3.6719 -0.7031 -1.1719 0 122 132
2.5781 -0.5469 -1.0156 0 129 125
2.7344 -0.5469 -1.0156 0 129 125
2.5781 -0.3906 -1.0156 0 129 125
2.7344 -0.3906 -1.0156 0 129 125
3.0469 -0.5469 -1.1719 0 122 132
2.8906 -0.5469 -1.0156 0 129 125
3.0469 -0.3906 -1.0156 0 129 125
2.5781 -0.2344 -1.0156 0 129 125
2.7344 -0.2344 -1.0156 0 129 125
2.5781 -0.0781 -1.0156 0 129 125
2.7344 -0.0781 -1.0156 0 129 125
2.8906 -0.2344 -1.0156 0 129 125
2.8906 -0.0781 -1.0156 0 129 125
