ply
format ascii 1.0
comment OctoMap 3D export - Moose Robot
comment Resolution: 0.100 m
element vertex 1482
property float x
property float y
property float z
property uchar red
property uchar green
property uchar blue
end_header
-3.9844 -3.3594 -1.3281 0 7 247
-3.9844 -3.2031 -1.3281 0 7 247
-4.1406 -2.7344 -1.3281 0 7 247
-4.2969 -2.5781 -1.3281 0 7 247
-4.2969 -3.8281 -1.1719 0 15 240
-4.4531 -3.5156 -1.1719 0 15 240
-4.4531 -3.3594 -1.1719 0 15 240
-4.4531 -3.2031 -1.0156 0 22 232
-4.2969 -3.6719 -1.1719 0 15 240
-4.1406 -3.6719 -1.1719 0 15 240
-4.2969 -3.5156 -1.1719 0 15 240
-4.1406 -3.5156 -1.1719 0 15 240
-4.2969 -3.3594 -1.1719 0 15 240
-4.1406 -3.2031 -1.1719 0 15 240
-3.9844 -3.3594 -1.1719 0 15 240
-4.4531 -2.8906 -1.0156 0 22 232
-4.4531 -2.7344 -1.0156 0 22 232
-4.6094 -2.7344 -0.8594 0 30 225
-4.4531 -2.7344 -0.8594 0 30 225
-4.6094 -2.5781 -0.8594 0 30 225
-4.1406 -3.0469 -1.1719 0 15 240
-4.1406 -2.8906 -1.1719 0 15 240
-4.2969 -3.0469 -1.0156 0 22 232
-4.1406 -3.0469 -1.0156 0 22 232
-4.2969 -2.8906 -1.0156 0 22 232
-4.1406 -2.8906 -1.0156 0 22 232
-3.9844 -3.0469 -1.1719 0 15 240
-3.9844 -2.8906 -1.0156 0 22 232
-4.2969 -2.7344 -1.0156 0 22 232
-4.1406 -2.7344 -1.0156 0 22 232
-4.2969 -2.5781 -1.0156 0 22 232
-4.1406 -2.5781 -1.0156 0 22 232
-3.9844 -2.7344 -1.1719 0 15 240
-3.9844 -2.5781 -1.0156 0 22 232
-4.4531 -2.4219 -1.0156 0 22 232
-4.7656 -2.4219 -0.8594 0 30 225
-4.4531 -2.4219 -0.8594 0 30 225
-4.6094 -2.2656 -0.8594 0 30 225
-4.4531 -2.2656 -0.8594 0 30 225
-4.7656 -1.9531 -0.7031 0 37 217
-4.6094 -2.1094 -0.8594 0 30 225
-4.4531 -2.1094 -0.8594 0 30 225
-4.4531 -1.9531 -0.8594 0 30 225
-4.6094 -2.1094 -0.7031 0 37 217
-4.4531 -1.9531 -0.7031 0 37 217
-4.2969 -2.4219 -1.1719 0 15 240
-4.2969 -2.2656 -1.1719 0 15 240
-4.2969 -2.4219 -1.0156 0 22 232
-4.1406 -2.4219 -1.0156 0 22 232
-4.2969 -2.2656 -1.0156 0 22 232
-4.2969 -2.1094 -1.1719 0 15 240
-4.1406 -2.1094 -1.1719 0 15 240
-4.1406 -1.9531 -1.1719 0 15 240
-4.2969 -1.9531 -1.0156 0 22 232
-4.1406 -1.9531 -1.0156 0 22 232
-4.2969 -2.2656 -0.8594 0 30 225
-4.1406 -2.2656 -0.8594 0 30 225
-4.2969 -2.1094 -0.8594 0 30 225
-4.2969 -1.9531 -0.8594 0 30 225
-4.1406 -1.9531 -0.8594 0 30 225
-4.7656 -1.6406 -0.7031 0 37 217
-4.4531 -1.6406 -0.8594 0 30 225
-4.6094 -1.7969 -0.7031 0 37 217
-4.6094 -1.6406 -0.7031 0 37 217
-4.7656 -1.4844 -0.7031 0 37 217
-4.6094 -1.4844 -0.7031 0 37 217
-4.4531 -1.4844 -0.7031 0 37 217
-4.4531 -1.3281 -0.7031 0 37 217
-4.1406 -1.7969 -1.1719 0 15 240
-4.2969 -1.7969 -1.0156 0 22 232
-4.1406 -1.7969 -1.0156 0 22 232
-4.2969 -1.6406 -1.0156 0 22 232
-4.1406 -1.6406 -1.0156 0 22 232
-4.2969 -1.4844 -1.0156 0 22 232
-4.1406 -1.4844 -1.0156 0 22 232
-4.1406 -1.3281 -1.0156 0 22 232
-3.9844 -1.4844 -1.0156 0 22 232
-3.9844 -1.3281 -1.0156 0 22 232
-3.8281 -1.3281 -1.0156 0 22 232
-4.2969 -1.7969 -0.8594 0 30 225
-4.2969 -1.4844 -0.8594 0 30 225
-4.1406 -1.4844 -0.8594 0 30 225
-4.2969 -1.3281 -0.8594 0 30 225
-4.1406 -1.3281 -0.8594 0 30 225
-4.2969 -1.4844 -0.7031 0 37 217
-4.2969 -1.3281 -0.7031 0 37 217
-4.7656 -1.3281 -0.5469 0 45 210
-4.6094 -1.3281 -0.5469 0 45 210
-4.4531 -1.1719 -0.7031 0 37 217
-3.8281 -1.1719 -1.0156 0 22 232
-4.1406 -1.1719 -0.8594 0 30 225
-4.2969 -1.0156 -0.8594 0 30 225
-4.1406 -1.0156 -0.8594 0 30 225
-4.2969 -1.1719 -0.7031 0 37 217
-4.1406 -1.1719 -0.7031 0 37 217
-4.2969 -1.0156 -0.7031 0 37 217
-3.9844 -1.1719 -0.8594 0 30 225
-3.8281 -1.1719 -0.8594 0 30 225
-3.9844 -1.0156 -0.8594 0 30 225
-3.8281 -1.0156 -0.8594 0 30 225
-4.2969 -0.8594 -0.8594 0 30 225
-4.2969 -0.7031 -0.8594 0 30 225
-4.2969 -0.8594 -0.7031 0 37 217
-4.1406 -0.8594 -0.7031 0 37 217
-4.2969 -0.7031 -0.7031 0 37 217
-4.1406 -0.7031 -0.7031 0 37 217
-3.9844 -0.8594 -0.8594 0 30 225
-3.8281 -0.8594 -0.8594 0 30 225
-3.9844 -0.7031 -0.8594 0 30 225
-3.8281 -0.7031 -0.8594 0 30 225
-3.9844 -0.8594 -0.7031 0 37 217
-3.9844 -0.7031 -0.7031 0 37 217
-4.1406 -0.5469 -0.7031 0 37 217
-4.1406 -0.3906 -0.7031 0 37 217
-3.9844 -0.5469 -0.8594 0 30 225
-3.8281 -0.5469 -0.7031 0 37 217
-3.9844 -0.3906 -0.7031 0 37 217
-3.8281 -0.3906 -0.7031 0 37 217
-4.1406 -0.2344 -0.7031 0 37 217
-4.1406 -0.0781 -0.7031 0 37 217
-3.9844 -0.2344 -0.7031 0 37 217
-3.9844 -0.0781 -0.7031 0 37 217
-3.8281 -0.0781 -0.7031 0 37 217
-4.7656 -1.1719 -0.5469 0 45 210
-4.7656 -1.0156 -0.5469 0 45 210
-4.6094 -1.1719 -0.5469 0 45 210
-4.6094 -1.0156 -0.5469 0 45 210
-4.7656 -0.8594 -0.5469 0 45 210
-4.7656 -0.7031 -0.5469 0 45 210
-4.6094 -0.8594 -0.5469 0 45 210
-4.4531 -0.8594 -0.5469 0 45 210
-4.6094 -0.7031 -0.5469 0 45 210
-4.4531 -0.7031 -0.5469 0 45 210
-4.6094 -0.7031 -0.3906 0 52 202
-4.2969 -1.0156 -0.5469 0 45 210
-4.2969 -0.7031 -0.5469 0 45 210
-4.6094 -0.5469 -0.3906 0 52 202
-4.2969 -0.5469 -0.5469 0 45 210
-4.1406 -0.5469 -0.5469 0 45 210
-4.2969 -0.3906 -0.5469 0 45 210
-3.9844 -0.0781 -0.5469 0 45 210
-3.6719 -1.1719 -0.8594 0 30 225
-3.6719 -1.0156 -0.8594 0 30 225
-3.6719 -0.8594 -0.8594 0 30 225
-3.6719 -0.7031 -0.8594 0 30 225
-3.5156 -0.7031 -0.8594 0 30 225
-3.6719 -0.5469 -0.8594 0 30 225
-3.5156 -0.5469 -0.8594 0 30 225
-3.5156 -0.5469 -0.7031 0 37 217
-3.6719 -0.3906 -0.7031 0 37 217
-3.5156 -0.3906 -0.7031 0 37 217
-3.6719 -0.2344 -0.7031 0 37 217
-3.5156 -0.2344 -0.7031 0 37 217
-3.6719 -0.0781 -0.7031 0 37 217
-3.5156 -0.0781 -0.7031 0 37 217
-3.3594 -0.0781 -0.7031 0 37 217
-0.0781 -0.0781 -0.3906 0 52 202
-17.4219 -6.0156 7.2656 164 90 0
-17.1094 -5.7031 7.2656 164 90 0
-16.9531 -5.7031 7.4219 172 82 0
-17.1094 -5.3906 7.2656 164 90 0
-16.9531 -5.5469 7.4219 172 82 0
-16.9531 -5.3906 7.4219 172 82 0
-17.1094 -5.2344 7.2656 164 90 0
-16.9531 -5.2344 7.4219 172 82 0
-17.2656 -6.1719 7.5781 179 75 0
-17.2656 -6.0156 7.5781 179 75 0
-17.2656 -5.7031 7.5781 179 75 0
-17.5781 -4.7656 7.4219 172 82 0
-18.2031 -2.7344 7.1094 157 97 0
-18.2031 -2.5781 7.1094 157 97 0
-18.0469 -2.5781 7.1094 157 97 0
-16.9531 -4.9219 7.2656 164 90 0
-16.9531 -4.7656 7.2656 164 90 0
-17.4219 -4.4531 7.2656 164 90 0
-16.7969 -4.9219 7.4219 172 82 0
-16.7969 -4.7656 7.4219 172 82 0
-16.7969 -4.6094 7.4219 172 82 0
-17.2656 -4.1406 7.4219 172 82 0
-17.2656 -3.9844 7.4219 172 82 0
-16.1719 -3.8281 7.2656 164 90 0
-17.1094 -3.6719 7.2656 164 90 0
-17.1094 -3.5156 7.2656 164 90 0
-16.6406 -3.0469 7.4219 172 82 0
-18.2031 -2.4219 7.1094 157 97 0
-18.2031 -2.4219 7.2656 164 90 0
-18.0469 -2.2656 7.1094 157 97 0
-17.8906 -2.2656 7.1094 157 97 0
-17.8906 -2.1094 6.9531 149 105 0
-17.8906 -1.9531 6.9531 149 105 0
-17.8906 -1.9531 7.1094 157 97 0
-17.7344 -1.9531 6.9531 149 105 0
-17.7344 -2.1094 7.1094 157 97 0
-18.0469 -2.4219 7.2656 164 90 0
-17.8906 -2.2656 7.2656 164 90 0
-18.0469 -2.4219 7.4219 172 82 0
-18.0469 -2.1094 7.2656 164 90 0
-17.8906 -2.1094 7.4219 172 82 0
-17.7344 -1.9531 7.2656 164 90 0
-17.7344 -1.7969 6.9531 149 105 0
-17.5781 -1.6406 6.9531 149 105 0
-17.7344 -1.7969 7.1094 157 97 0
-17.5781 -1.7969 7.1094 157 97 0
-17.7344 -1.6406 7.1094 157 97 0
-17.5781 -1.6406 7.1094 157 97 0
-17.5781 -1.4844 6.9531 149 105 0
-17.5781 -1.4844 7.1094 157 97 0
-17.5781 -1.3281 7.1094 157 97 0
-17.8906 -1.7969 7.4219 172 82 0
-17.5781 -1.7969 7.2656 164 90 0
-17.4219 -1.4844 6.9531 149 105 0
-17.4219 -1.3281 6.9531 149 105 0
-17.4219 -1.4844 7.1094 157 97 0
-17.4219 -1.6406 7.2656 164 90 0
-17.4219 -1.4844 7.2656 164 90 0
-17.4219 -1.3281 7.2656 164 90 0
-17.4219 -1.1719 7.1094 157 97 0
-17.4219 -1.0156 7.1094 157 97 0
-17.2656 -0.8594 6.9531 149 105 0
-17.2656 -1.1719 7.2656 164 90 0
-17.4219 -0.5469 7.1094 157 97 0
-17.2656 -0.5469 7.2656 164 90 0
-16.7969 -0.2344 7.1094 157 97 0
-16.6406 -0.0781 7.1094 157 97 0
-18.2031 -4.2969 8.0469 202 52 0
-18.2031 -3.9844 7.8906 195 60 0
-18.2031 -3.8281 7.8906 195 60 0
-17.8906 -3.8281 8.0469 202 52 0
-18.3594 -4.1406 8.2031 210 45 0
-18.2031 -3.8281 8.2031 210 45 0
-18.2031 -3.5156 7.8906 195 60 0
-18.3594 -2.7344 8.0469 202 52 0
-18.2031 -3.5156 8.2031 210 45 0
-17.8906 -3.5156 8.2031 210 45 0
-16.9531 -4.9219 7.5781 179 75 0
-17.1094 -4.6094 7.5781 179 75 0
-18.3594 -2.4219 8.0469 202 52 0
-18.3594 -2.2656 8.0469 202 52 0
-18.8281 -0.3906 8.0469 202 52 0
-18.8281 -0.0781 7.8906 195 60 0
-18.6719 -0.0781 7.8906 195 60 0
-18.5156 -0.2344 8.0469 202 52 0
-18.6719 -0.0781 8.0469 202 52 0
-17.8906 -0.0781 7.5781 179 75 0
0.2344 -0.2344 -0.3906 0 52 202
0.0781 -0.0781 -0.3906 0 52 202
0.2344 -0.0781 -0.3906 0 52 202
0.3906 -0.2344 -0.3906 0 52 202
0.5469 -0.2344 -0.3906 0 52 202
0.3906 -0.0781 -0.3906 0 52 202
0.5469 -0.0781 -0.3906 0 52 202
0.7031 -0.2344 -0.3906 0 52 202
0.7031 -0.0781 -0.3906 0 52 202
-18.9844 0.3906 0.5469 0 97 157
-19.4531 0.0781 0.7031 0 105 150
-19.6094 0.3906 0.7031 0 105 150
-19.6094 0.5469 0.8594 0 112 142
-19.9219 0.0781 1.0156 0 120 135
-18.9844 0.3906 0.7031 0 105 150
-19.2969 0.3906 1.0156 0 120 135
-19.9219 0.7031 0.8594 0 112 142
-19.6094 0.7031 0.7031 0 105 150
-19.6094 1.1719 0.7031 0 105 150
-18.9844 0.7031 0.7031 0 105 150
-18.9844 0.8594 0.8594 0 112 142
-18.2031 1.0156 0.8594 0 112 142
-18.0469 0.7031 0.7031 0 105 150
-19.9219 1.7969 1.1719 0 127 127
-18.9844 1.3281 1.1719 0 127 127
-18.8281 1.6406 1.1719 0 127 127
-19.7656 1.9531 0.8594 0 112 142
-19.1406 1.9531 1.1719 0 127 127
-19.1406 2.2656 1.1719 0 127 127
-18.8281 2.4219 1.1719 0 127 127
-18.6719 1.7969 1.1719 0 127 127
-18.6719 2.1094 0.8594 0 112 142
-18.3594 1.9531 1.1719 0 127 127
-17.7344 2.4219 1.0156 0 120 135
-19.1406 0.0781 1.4844 0 142 112
-17.8906 0.5469 1.4844 0 142 112
-18.2031 0.8594 1.4844 0 142 112
-18.3594 0.8594 1.6406 0 150 105
-18.3594 1.0156 1.9531 0 165 89
-18.3594 1.1719 1.9531 0 165 89
-18.8281 2.4219 1.3281 0 135 120
-18.3594 2.2656 1.3281 0 135 120
-17.4219 0.5469 0.7031 0 105 150
-17.2656 0.7031 0.7031 0 105 150
-17.2656 0.8594 0.7031 0 105 150
-17.2656 1.0156 0.7031 0 105 150
-17.2656 1.1719 0.7031 0 105 150
-17.2656 1.0156 0.8594 0 112 142
-17.2656 1.1719 0.8594 0 112 142
-17.4219 1.0156 1.0156 0 120 135
-17.2656 1.1719 1.0156 0 120 135
-17.2656 1.4844 0.7031 0 105 150
-17.4219 1.3281 0.8594 0 112 142
-17.2656 1.3281 0.8594 0 112 142
-17.2656 1.3281 1.0156 0 120 135
-17.2656 0.0781 1.7969 0 157 97
-17.1094 0.2344 1.7969 0 157 97
-16.6406 0.0781 1.4844 0 142 112
-16.3281 0.2344 1.4844 0 142 112
-16.4844 1.1719 1.4844 0 142 112
-17.1094 1.1719 1.9531 0 165 89
-16.0156 0.2344 1.4844 0 142 112
-15.8594 0.3906 1.4844 0 142 112
-16.0156 0.3906 1.6406 0 150 105
-15.7031 0.5469 1.6406 0 150 105
-16.1719 0.8594 1.4844 0 142 112
-16.1719 0.7031 1.6406 0 150 105
-16.6406 1.3281 1.4844 0 142 112
-16.7969 1.7969 1.7969 0 157 97
-17.2656 2.1094 1.6406 0 150 105
-16.6406 1.9531 1.6406 0 150 105
-16.7969 2.2656 1.7969 0 157 97
-16.9531 1.7969 1.9531 0 165 89
-16.9531 2.1094 1.9531 0 165 89
-16.7969 1.9531 1.9531 0 165 89
-16.7969 2.1094 1.9531 0 165 89
-16.0156 1.4844 1.4844 0 142 112
-15.7031 1.6406 1.4844 0 142 112
-15.8594 2.1094 1.4844 0 142 112
-18.6719 2.7344 1.1719 0 127 127
-18.0469 2.7344 1.0156 0 120 135
-17.7344 2.5781 1.0156 0 120 135
-17.5781 2.7344 1.1719 0 127 127
-17.8906 2.8906 1.0156 0 120 135
-17.8906 3.0469 1.0156 0 120 135
-17.7344 2.8906 1.1719 0 127 127
-17.5781 2.8906 1.1719 0 127 127
-17.5781 3.0469 1.1719 0 127 127
-17.8906 3.3594 1.0156 0 120 135
-18.8281 2.7344 1.3281 0 135 120
-18.8281 2.8906 1.3281 0 135 120
-17.5781 2.8906 1.3281 0 135 120
-17.7344 3.0469 1.3281 0 135 120
-18.0469 4.4531 1.4844 0 142 112
-17.5781 4.6094 1.4844 0 142 112
-16.9531 3.0469 1.1719 0 127 127
-17.1094 3.3594 1.1719 0 127 127
-17.4219 3.6719 1.1719 0 127 127
-16.7969 3.3594 1.0156 0 120 135
-16.6406 3.3594 1.1719 0 127 127
-16.7969 3.6719 1.1719 0 127 127
-16.4844 3.6719 1.1719 0 127 127
-16.9531 3.9844 1.1719 0 127 127
-16.6406 3.8281 1.1719 0 127 127
-15.3906 3.9844 1.1719 0 127 127
-15.3906 4.2969 1.1719 0 127 127
-17.1094 2.8906 1.3281 0 135 120
-16.9531 3.0469 1.3281 0 135 120
-16.6406 3.0469 1.7969 0 157 97
-17.1094 3.2031 1.3281 0 135 120
-16.4844 3.2031 1.7969 0 157 97
-16.6406 3.5156 1.7969 0 157 97
-15.2344 3.6719 1.3281 0 135 120
-15.0781 3.6719 1.3281 0 135 120
-17.4219 3.8281 1.3281 0 135 120
-16.9531 4.1406 1.3281 0 135 120
-16.6406 3.8281 1.3281 0 135 120
-16.7969 3.8281 1.4844 0 142 112
-16.7969 4.2969 1.3281 0 135 120
-16.9531 4.4531 1.3281 0 135 120
-16.7969 4.4531 1.3281 0 135 120
-16.7969 4.7656 1.3281 0 135 120
-16.4844 4.6094 1.6406 0 150 105
-16.9531 4.2969 2.2656 0 180 74
-16.6406 4.4531 2.2656 0 180 74
-15.2344 3.8281 1.3281 0 135 120
-15.2344 3.9844 1.4844 0 142 112
-15.3906 4.1406 1.3281 0 135 120
-15.3906 4.1406 1.4844 0 142 112
-16.1719 4.7656 1.3281 0 135 120
-16.1719 4.9219 1.3281 0 135 120
-16.0156 4.9219 1.3281 0 135 120
-16.1719 4.9219 1.4844 0 142 112
-16.1719 4.9219 1.6406 0 150 105
-19.1406 0.5469 4.2969 22 232 0
-18.9844 1.0156 4.2969 22 232 0
-18.0469 0.0781 3.9844 7 247 0
-18.0469 0.2344 3.9844 7 247 0
-18.0469 0.3906 3.9844 7 247 0
-18.0469 0.5469 4.1406 15 240 0
-18.5156 0.7031 4.1406 15 240 0
-18.5156 1.1719 4.2969 22 232 0
-18.0469 0.7031 3.9844 7 247 0
-18.0469 0.8594 4.1406 15 240 0
-16.9531 0.0781 3.6719 0 247 7
-16.7969 0.2344 3.6719 0 247 7
-16.6406 0.2344 3.6719 0 247 7
-16.3281 0.0781 3.6719 0 247 7
-16.7969 0.3906 3.6719 0 247 7
-16.6406 0.5469 3.6719 0 247 7
-16.6406 0.8594 3.6719 0 247 7
-16.0156 0.8594 3.6719 0 247 7
-15.8594 0.8594 3.6719 0 247 7
-16.0156 1.0156 3.6719 0 247 7
-16.0156 1.1719 3.6719 0 247 7
-15.8594 1.3281 3.6719 0 247 7
-15.5469 1.6406 3.6719 0 247 7
-15.3906 1.7969 3.6719 0 247 7
-15.3906 1.9531 3.6719 0 247 7
-15.3906 2.1094 3.6719 0 247 7
-15.0781 1.9531 3.6719 0 247 7
-15.2344 2.1094 3.6719 0 247 7
-15.2344 2.2656 3.6719 0 247 7
-16.9531 0.2344 3.8281 0 255 0
-17.1094 0.2344 3.9844 7 247 0
-16.9531 0.3906 3.8281 0 255 0
-16.9531 0.3906 3.9844 7 247 0
-17.2656 0.3906 4.1406 15 240 0
-17.1094 0.5469 4.1406 15 240 0
-16.7969 0.5469 3.8281 0 255 0
-16.6406 0.5469 3.8281 0 255 0
-16.4844 0.5469 3.8281 0 255 0
-16.6406 0.2344 4.2969 22 232 0
-16.4844 0.0781 4.2969 22 232 0
-16.3281 0.0781 4.2969 22 232 0
-16.9531 0.7031 3.9844 7 247 0
-16.9531 0.7031 4.1406 15 240 0
-16.6406 0.7031 3.8281 0 255 0
-16.6406 0.8594 3.8281 0 255 0
-16.6406 0.8594 3.9844 7 247 0
-16.6406 1.1719 3.8281 0 255 0
-16.6406 1.0156 3.9844 7 247 0
-16.6406 1.1719 3.9844 7 247 0
-16.4844 1.0156 3.8281 0 255 0
-16.4844 1.1719 3.9844 7 247 0
-16.7969 1.0156 4.1406 15 240 0
-16.4844 1.1719 4.1406 15 240 0
-16.0156 0.2344 4.2969 22 232 0
-15.7031 0.5469 4.2969 22 232 0
-15.5469 0.3906 4.1406 15 240 0
-16.0156 1.1719 3.8281 0 255 0
-15.8594 1.1719 3.9844 7 247 0
-16.0156 0.8594 4.2969 22 232 0
-15.0781 0.7031 4.2969 22 232 0
-15.5469 1.0156 4.2969 22 232 0
-15.2344 1.0156 4.2969 22 232 0
-16.0156 0.2344 4.4531 30 225 0
-16.1719 0.0781 4.6094 37 217 0
-16.1719 0.3906 4.6094 37 217 0
-15.0781 0.5469 4.4531 30 225 0
-16.1719 1.0156 4.4531 30 225 0
-15.2344 0.8594 4.4531 30 225 0
-16.6406 1.3281 3.9844 7 247 0
-16.3281 2.1094 4.1406 15 240 0
-17.4219 1.6406 4.9219 52 202 0
-16.4844 1.3281 4.6094 37 217 0
-16.4844 1.4844 4.7656 45 210 0
-16.9531 1.9531 4.9219 52 202 0
-16.3281 2.2656 4.9219 52 202 0
-16.1719 1.3281 3.8281 0 255 0
-16.1719 1.4844 3.8281 0 255 0
-15.8594 1.3281 3.8281 0 255 0
-15.8594 1.4844 3.8281 0 255 0
-15.7031 1.4844 3.8281 0 255 0
-15.8594 1.3281 3.9844 7 247 0
-15.8594 1.4844 3.9844 7 247 0
-16.1719 1.6406 3.8281 0 255 0
-16.0156 1.6406 3.8281 0 255 0
-16.1719 1.7969 3.8281 0 255 0
-16.0156 1.6406 3.9844 7 247 0
-16.1719 1.7969 3.9844 7 247 0
-15.7031 1.7969 3.8281 0 255 0
-16.1719 1.7969 4.1406 15 240 0
-16.0156 1.7969 4.1406 15 240 0
-15.5469 1.6406 3.8281 0 255 0
-15.2344 1.7969 3.8281 0 255 0
-16.1719 1.9531 3.9844 7 247 0
-15.7031 1.9531 3.8281 0 255 0
-15.7031 2.4219 3.9844 7 247 0
-16.1719 1.9531 4.1406 15 240 0
-16.1719 2.2656 4.2969 22 232 0
-15.3906 2.1094 3.8281 0 255 0
-15.0781 2.1094 3.9844 7 247 0
-15.3906 2.2656 3.8281 0 255 0
-15.5469 2.2656 3.9844 7 247 0
-15.2344 2.2656 3.8281 0 255 0
-15.0781 2.4219 3.8281 0 255 0
-15.0781 2.2656 3.9844 7 247 0
-15.2344 2.1094 4.2969 22 232 0
-16.1719 1.3281 4.4531 30 225 0
-15.8594 1.4844 4.4531 30 225 0
-16.1719 2.1094 4.6094 37 217 0
-15.7031 2.4219 4.6094 37 217 0
-16.0156 1.9531 4.7656 45 210 0
-16.1719 2.4219 4.7656 45 210 0
-15.8594 2.2656 4.9219 52 202 0
-15.5469 2.4219 4.9219 52 202 0
-16.4844 2.5781 4.2969 22 232 0
-16.3281 2.5781 4.9219 52 202 0
-15.8594 2.5781 3.9844 7 247 0
-15.8594 2.7344 3.9844 7 247 0
-15.8594 3.0469 3.9844 7 247 0
-16.0156 2.8906 4.1406 15 240 0
-16.0156 3.0469 4.1406 15 240 0
-15.7031 3.0469 4.1406 15 240 0
-15.8594 3.0469 4.2969 22 232 0
-15.3906 2.5781 3.8281 0 255 0
-15.3906 2.5781 3.9844 7 247 0
-15.5469 2.7344 3.9844 7 247 0
-15.3906 2.8906 3.9844 7 247 0
-15.3906 3.0469 3.9844 7 247 0
-15.3906 2.5781 4.1406 15 240 0
-15.3906 2.7344 4.1406 15 240 0
-15.5469 2.8906 4.1406 15 240 0
-15.5469 2.8906 4.2969 22 232 0
-16.0156 3.3594 4.2969 22 232 0
-15.7031 3.2031 4.1406 15 240 0
-15.8594 3.3594 4.1406 15 240 0
-15.8594 3.2031 4.2969 22 232 0
-15.8594 3.5156 4.1406 15 240 0
-15.8594 3.6719 4.1406 15 240 0
-15.7031 3.6719 4.1406 15 240 0
-15.8594 3.5156 4.2969 22 232 0
-15.7031 3.6719 4.2969 22 232 0
-15.5469 3.2031 3.9844 7 247 0
-15.5469 3.3594 3.9844 7 247 0
-15.3906 3.3594 4.1406 15 240 0
-15.5469 3.5156 4.1406 15 240 0
-15.5469 3.5156 4.2969 22 232 0
-15.3906 3.5156 4.2969 22 232 0
-15.7031 2.7344 4.6094 37 217 0
-15.8594 2.5781 4.7656 45 210 0
-15.7031 2.7344 4.9219 52 202 0
-16.0156 3.0469 4.9219 52 202 0
-15.8594 2.8906 4.9219 52 202 0
-15.8594 3.3594 4.4531 30 225 0
-15.7031 3.6719 4.4531 30 225 0
-16.0156 3.2031 4.7656 45 210 0
-15.8594 3.3594 4.7656 45 210 0
-15.8594 3.5156 4.7656 45 210 0
-15.7031 3.6719 4.7656 45 210 0
-15.8594 3.9844 4.1406 15 240 0
-15.7031 3.8281 4.2969 22 232 0
-15.7031 3.9844 4.2969 22 232 0
-15.5469 4.4531 4.2969 22 232 0
-15.5469 4.6094 4.2969 22 232 0
-15.2344 4.6094 4.2969 22 232 0
-15.7031 3.8281 4.4531 30 225 0
-15.7031 3.9844 4.4531 30 225 0
-15.3906 3.8281 4.7656 45 210 0
-16.0156 4.9219 4.6094 37 217 0
-15.3906 4.4531 4.4531 30 225 0
-15.0781 4.9219 4.4531 30 225 0
-12.4219 2.2656 1.4844 0 142 112
-12.2656 2.4219 1.4844 0 142 112
-12.1094 2.4219 1.3281 0 135 120
-12.2656 2.2656 1.6406 0 150 105
-12.1094 2.4219 1.6406 0 150 105
-11.4844 4.6094 1.0156 0 120 135
-11.4844 4.6094 1.1719 0 127 127
-11.3281 4.6094 1.1719 0 127 127
-11.4844 4.7656 1.0156 0 120 135
-11.3281 4.7656 1.1719 0 127 127
-11.4844 4.9219 1.1719 0 127 127
-11.3281 4.9219 1.1719 0 127 127
-11.1719 4.7656 1.0156 0 120 135
-11.1719 4.7656 1.1719 0 127 127
-11.1719 4.9219 1.1719 0 127 127
-12.2656 2.7344 1.4844 0 142 112
-12.1094 2.5781 1.4844 0 142 112
-12.1094 2.7344 1.4844 0 142 112
-12.2656 2.5781 1.6406 0 150 105
-12.2656 2.7344 1.6406 0 150 105
-11.7969 3.3594 1.4844 0 142 112
-11.7969 3.5156 1.4844 0 142 112
-11.7969 3.6719 1.4844 0 142 112
-11.3281 4.9219 1.3281 0 135 120
-11.1719 4.9219 1.3281 0 135 120
-14.7656 0.5469 4.1406 15 240 0
-14.6094 0.3906 4.1406 15 240 0
-14.6094 0.5469 4.1406 15 240 0
-14.1406 0.2344 3.9844 7 247 0
-14.2969 0.3906 3.9844 7 247 0
-14.9219 0.8594 4.1406 15 240 0
-14.4531 1.6406 4.1406 15 240 0
-14.1406 1.4844 3.9844 7 247 0
-14.9219 2.4219 3.9844 7 247 0
-14.6094 1.9531 4.1406 15 240 0
-12.8906 1.4844 3.8281 0 255 0
-13.0469 1.6406 3.9844 7 247 0
-13.8281 3.5156 3.6719 0 247 7
-13.6719 3.3594 3.6719 0 247 7
-13.8281 3.3594 3.8281 0 255 0
-14.1406 3.6719 3.8281 0 255 0
-14.1406 3.6719 3.9844 7 247 0
-13.9844 3.6719 3.8281 0 255 0
-13.9844 3.5156 3.9844 7 247 0
-13.9844 3.6719 3.9844 7 247 0
-14.7656 2.7344 4.4531 30 225 0
-14.9219 2.8906 4.4531 30 225 0
-13.0469 3.0469 3.9844 7 247 0
-12.8906 3.0469 4.2969 22 232 0
-13.6719 3.5156 3.8281 0 255 0
-13.6719 3.5156 3.9844 7 247 0
-12.8906 3.2031 3.9844 7 247 0
-12.7344 3.3594 3.9844 7 247 0
-12.5781 3.5156 3.9844 7 247 0
-13.0469 3.2031 4.1406 15 240 0
-12.8906 3.3594 4.1406 15 240 0
-12.7344 3.2031 4.1406 15 240 0
-12.7344 3.3594 4.1406 15 240 0
-12.7344 3.5156 4.1406 15 240 0
-12.5781 3.5156 4.1406 15 240 0
-12.5781 3.6719 4.1406 15 240 0
-14.4531 3.9844 3.9844 7 247 0
-14.4531 3.8281 4.1406 15 240 0
-14.7656 4.1406 4.2969 22 232 0
-14.6094 4.2969 4.1406 15 240 0
-14.4531 4.1406 4.2969 22 232 0
-14.6094 4.2969 4.2969 22 232 0
-14.2969 3.9844 3.9844 7 247 0
-14.1406 3.9844 3.9844 7 247 0
-13.9844 3.8281 3.8281 0 255 0
-14.2969 4.1406 3.9844 7 247 0
-14.1406 4.1406 3.9844 7 247 0
-13.9844 3.8281 4.1406 15 240 0
-14.7656 4.4531 4.1406 15 240 0
-14.6094 4.4531 4.1406 15 240 0
-14.6094 3.8281 4.6094 37 217 0
-14.4531 3.9844 4.6094 37 217 0
-14.7656 4.4531 4.4531 30 225 0
-14.6094 4.7656 4.7656 45 210 0
-12.8906 3.9844 4.1406 15 240 0
-12.8906 3.9844 4.2969 22 232 0
-12.7344 3.9844 4.2969 22 232 0
-12.8906 4.1406 4.2969 22 232 0
-12.7344 4.1406 4.1406 15 240 0
-12.5781 4.1406 4.1406 15 240 0
-13.5156 4.7656 4.4531 30 225 0
-11.3281 4.9219 3.5156 0 240 15
-11.3281 4.7656 3.6719 0 247 7
-11.4844 4.9219 3.6719 0 247 7
-11.3281 4.9219 3.6719 0 247 7
-12.2656 2.5781 3.8281 0 255 0
-12.2656 2.7344 3.8281 0 255 0
-12.2656 2.5781 3.9844 7 247 0
-12.1094 2.7344 3.8281 0 255 0
-12.1094 2.7344 3.9844 7 247 0
-12.2656 2.8906 3.8281 0 255 0
-12.4219 3.6719 3.9844 7 247 0
-11.9531 3.5156 3.8281 0 255 0
-12.4219 3.6719 4.1406 15 240 0
-11.7969 3.6719 3.8281 0 255 0
-12.4219 3.8281 3.9844 7 247 0
-12.2656 4.2969 3.8281 0 255 0
-12.4219 4.2969 4.1406 15 240 0
-12.2656 4.4531 4.1406 15 240 0
-12.1094 4.6094 4.1406 15 240 0
-12.4219 4.9219 4.2969 22 232 0
-17.7344 5.0781 1.6406 0 150 105
-16.6406 5.0781 2.2656 0 180 74
-16.1719 5.0781 1.4844 0 142 112
-15.8594 5.0781 1.3281 0 135 120
-15.8594 5.2344 1.3281 0 135 120
-15.8594 5.0781 1.4844 0 142 112
-16.0156 5.3906 1.3281 0 135 120
-15.8594 5.3906 1.3281 0 135 120
-15.7031 5.5469 1.3281 0 135 120
-15.8594 5.3906 1.4844 0 142 112
-15.8594 5.5469 1.4844 0 142 112
-15.8594 5.2344 1.6406 0 150 105
-15.8594 5.3906 1.6406 0 150 105
-15.8594 5.5469 1.6406 0 150 105
-15.8594 5.8594 1.4844 0 142 112
-15.7031 5.7031 1.7969 0 157 97
-15.2344 6.1719 1.4844 0 142 112
-15.5469 7.1094 2.2656 0 180 74
-15.0781 8.0469 1.7969 0 157 97
-15.0781 8.2031 1.7969 0 157 97
-15.0781 8.3594 2.1094 0 172 82
-15.8594 9.1406 2.1094 0 172 82
-16.7969 5.2344 4.9219 52 202 0
-16.7969 5.5469 4.9219 52 202 0
-15.2344 5.0781 4.2969 22 232 0
-15.0781 5.2344 4.2969 22 232 0
-16.0156 5.0781 4.6094 37 217 0
-16.0156 5.2344 4.6094 37 217 0
-15.7031 5.0781 4.4531 30 225 0
-15.8594 5.5469 4.6094 37 217 0
-15.7031 5.2344 4.7656 45 210 0
-15.5469 5.0781 4.4531 30 225 0
-15.3906 5.2344 4.6094 37 217 0
-15.2344 5.0781 4.4531 30 225 0
-15.0781 5.0781 4.4531 30 225 0
-15.2344 5.2344 4.4531 30 225 0
-15.3906 5.3906 4.6094 37 217 0
-15.3906 5.5469 4.6094 37 217 0
-15.2344 5.3906 4.4531 30 225 0
-15.0781 5.5469 4.4531 30 225 0
-15.0781 5.3906 4.6094 37 217 0
-15.2344 5.0781 4.9219 52 202 0
-15.3906 5.3906 4.7656 45 210 0
-15.0781 5.3906 4.7656 45 210 0
-15.2344 5.5469 4.7656 45 210 0
-15.3906 5.7031 4.6094 37 217 0
-15.2344 5.8594 4.4531 30 225 0
-15.2344 5.7031 4.6094 37 217 0
-15.0781 5.7031 4.6094 37 217 0
-15.2344 5.8594 4.6094 37 217 0
-15.5469 6.1719 4.6094 37 217 0
-15.5469 5.7031 4.7656 45 210 0
-15.2344 5.7031 4.7656 45 210 0
-15.2344 5.8594 4.7656 45 210 0
-15.3906 6.1719 4.7656 45 210 0
-15.2344 6.1719 4.7656 45 210 0
-15.0781 6.1719 4.7656 45 210 0
-15.0781 6.4844 4.6094 37 217 0
-15.5469 7.7344 2.5781 0 195 60
-17.1094 9.2969 2.7344 0 202 52
-13.9844 6.1719 2.1094 0 172 82
-13.0469 6.1719 1.9531 0 165 89
-13.5156 7.1094 2.2656 0 180 74
-13.0469 7.1094 2.1094 0 172 82
-11.3281 5.0781 1.1719 0 127 127
-11.1719 5.0781 1.1719 0 127 127
-11.1719 5.2344 1.1719 0 127 127
-11.9531 5.5469 1.7969 0 157 97
-11.3281 5.2344 1.4844 0 142 112
-11.3281 5.3906 1.4844 0 142 112
-11.4844 5.3906 1.7969 0 157 97
-12.1094 5.8594 1.7969 0 157 97
-11.4844 5.8594 1.7969 0 157 97
-11.1719 5.0781 1.3281 0 135 120
-11.1719 5.2344 1.3281 0 135 120
-10.7031 5.2344 1.6406 0 150 105
-10.0781 5.0781 1.6406 0 150 105
-11.0156 5.7031 1.6406 0 150 105
-11.0156 6.0156 1.7969 0 157 97
-10.5469 5.8594 1.6406 0 150 105
-10.0781 5.7031 1.6406 0 150 105
-10.0781 6.1719 1.6406 0 150 105
-11.4844 6.6406 1.3281 0 135 120
-11.3281 6.4844 1.7969 0 157 97
-11.9531 6.6406 1.9531 0 165 89
-12.2656 6.9531 1.9531 0 165 89
-12.1094 7.2656 2.2656 0 180 74
-11.6406 7.1094 2.1094 0 172 82
-10.7031 6.3281 1.3281 0 135 120
-11.0156 6.7969 1.4844 0 142 112
-10.7031 6.7969 1.4844 0 142 112
-11.1719 6.3281 1.7969 0 157 97
-10.7031 6.3281 1.7969 0 157 97
-10.3906 6.3281 1.3281 0 135 120
-10.0781 6.6406 1.3281 0 135 120
-10.8594 7.1094 1.7969 0 157 97
-10.3906 7.1094 1.4844 0 142 112
-10.3906 7.2656 1.3281 0 135 120
-10.3906 6.9531 1.7969 0 157 97
-10.0781 7.4219 1.6406 0 150 105
-10.3906 6.7969 1.9531 0 165 89
-11.0156 6.9531 2.1094 0 172 82
-14.9219 8.5156 1.7969 0 157 97
-13.6719 8.0469 1.7969 0 157 97
-12.5781 7.5781 1.6406 0 150 105
-13.2031 8.6719 1.6406 0 150 105
-13.3594 7.7344 2.4219 0 187 67
-14.4531 9.1406 1.7969 0 157 97
-14.2969 9.1406 1.7969 0 157 97
-13.9844 9.1406 1.9531 0 165 89
-13.5156 9.2969 2.1094 0 172 82
-13.2031 9.6094 2.1094 0 172 82
-11.9531 8.0469 1.6406 0 150 105
-11.9531 8.2031 1.6406 0 150 105
-12.2656 8.5156 1.7969 0 157 97
-11.6406 8.3594 1.6406 0 150 105
-10.7031 8.0469 1.7969 0 157 97
-10.5469 7.7344 1.4844 0 142 112
-10.5469 7.5781 1.6406 0 150 105
-10.0781 7.7344 1.7969 0 157 97
-10.2344 8.0469 1.7969 0 157 97
-11.1719 8.5156 1.9531 0 165 89
-12.1094 8.9844 1.9531 0 165 89
-14.2969 5.3906 4.2969 22 232 0
-14.1406 5.5469 4.2969 22 232 0
-14.2969 5.7031 4.2969 22 232 0
-14.2969 5.8594 4.2969 22 232 0
-14.1406 5.8594 4.2969 22 232 0
-13.9844 5.7031 4.2969 22 232 0
-13.8281 5.7031 4.2969 22 232 0
-13.8281 5.8594 4.2969 22 232 0
-13.8281 6.0156 4.2969 22 232 0
-14.7656 5.5469 4.6094 37 217 0
-14.7656 5.8594 4.6094 37 217 0
-14.9219 6.0156 4.6094 37 217 0
-14.4531 6.1719 4.4531 30 225 0
-14.9219 5.8594 4.7656 45 210 0
-14.7656 6.1719 4.7656 45 210 0
-14.1406 5.7031 4.6094 37 217 0
-13.9844 5.8594 4.4531 30 225 0
-13.8281 6.0156 4.6094 37 217 0
-13.6719 6.0156 4.2969 22 232 0
-12.5781 6.1719 3.9844 7 247 0
-12.5781 6.0156 4.1406 15 240 0
-12.5781 6.1719 4.2969 22 232 0
-14.9219 6.3281 4.6094 37 217 0
-14.9219 6.3281 4.7656 45 210 0
-14.9219 6.4844 4.7656 45 210 0
-13.9844 6.6406 4.4531 30 225 0
-13.9844 6.6406 4.6094 37 217 0
-13.9844 6.7969 4.6094 37 217 0
-13.9844 6.6406 4.7656 45 210 0
-13.9844 6.7969 4.7656 45 210 0
-13.9844 6.9531 4.4531 30 225 0
-13.9844 6.9531 4.6094 37 217 0
-12.5781 6.3281 4.1406 15 240 0
-11.3281 5.0781 3.5156 0 240 15
-11.4844 5.0781 3.6719 0 247 7
-11.3281 5.0781 3.6719 0 247 7
-11.3281 5.2344 3.6719 0 247 7
-11.1719 5.2344 3.5156 0 240 15
-11.1719 5.2344 3.6719 0 247 7
-12.2656 5.0781 4.2969 22 232 0
-11.3281 5.0781 3.8281 0 255 0
-12.4219 6.0156 4.1406 15 240 0
-11.6406 5.8594 3.8281 0 255 0
-11.7969 5.8594 3.9844 7 247 0
-11.6406 5.8594 3.9844 7 247 0
-11.6406 6.0156 3.9844 7 247 0
-11.4844 6.0156 3.8281 0 255 0
-11.4844 6.1719 3.8281 0 255 0
-11.4844 6.0156 3.9844 7 247 0
-11.4844 6.1719 3.9844 7 247 0
-11.3281 6.1719 3.9844 7 247 0
-11.7969 5.8594 4.1406 15 240 0
-11.6406 6.0156 4.1406 15 240 0
-11.4844 6.1719 4.1406 15 240 0
-11.3281 6.1719 4.1406 15 240 0
-11.1719 5.2344 3.8281 0 255 0
-12.4219 6.3281 3.9844 7 247 0
-12.4219 6.3281 4.1406 15 240 0
-12.2656 6.3281 4.1406 15 240 0
-12.2656 6.4844 4.1406 15 240 0
-11.9531 6.4844 4.1406 15 240 0
-11.6406 6.4844 3.9844 7 247 0
-11.3281 6.3281 3.8281 0 255 0
-11.6406 6.6406 3.9844 7 247 0
-11.4844 6.6406 3.9844 7 247 0
-11.4844 6.7969 3.9844 7 247 0
-11.7969 6.4844 4.1406 15 240 0
-11.6406 6.4844 4.1406 15 240 0
-11.7969 6.6406 4.1406 15 240 0
-11.6406 6.6406 4.2969 22 232 0
-11.4844 6.6406 4.1406 15 240 0
-11.4844 6.6406 4.2969 22 232 0
-12.2656 7.1094 4.2969 22 232 0
-12.1094 7.1094 4.1406 15 240 0
-12.1094 7.2656 4.2969 22 232 0
-12.1094 7.2656 4.4531 30 225 0
-14.6094 8.3594 2.5781 0 195 60
-13.6719 8.3594 4.9219 52 202 0
-13.5156 8.5156 4.9219 52 202 0
-11.9531 7.5781 4.2969 22 232 0
-12.4219 7.5781 4.4531 30 225 0
-12.4219 7.7344 4.4531 30 225 0
-3.8281 0.0781 -0.7031 0 37 217
-4.6094 0.2344 -0.2344 0 60 195
-4.4531 0.3906 -0.2344 0 60 195
-4.4531 0.5469 -0.2344 0 60 195
-4.1406 0.0781 -0.5469 0 45 210
-4.2969 0.2344 -0.3906 0 52 202
-3.9844 0.0781 -0.5469 0 45 210
-3.9844 0.2344 -0.5469 0 45 210
-3.8281 0.2344 -0.5469 0 45 210
-4.2969 0.3906 -0.3906 0 52 202
-4.1406 0.3906 -0.3906 0 52 202
-4.1406 0.5469 -0.3906 0 52 202
-3.9844 0.3906 -0.5469 0 45 210
-3.8281 0.3906 -0.5469 0 45 210
-3.8281 0.5469 -0.5469 0 45 210
-3.9844 0.5469 -0.3906 0 52 202
-4.2969 0.5469 -0.2344 0 60 195
-4.4531 0.7031 -0.2344 0 60 195
-4.1406 0.7031 -0.3906 0 52 202
-3.8281 0.7031 -0.5469 0 45 210
-3.9844 0.7031 -0.3906 0 52 202
-3.9844 0.8594 -0.3906 0 52 202
-3.8281 0.8594 -0.3906 0 52 202
-3.8281 1.0156 -0.3906 0 52 202
-4.2969 0.7031 -0.2344 0 60 195
-4.2969 0.8594 -0.2344 0 60 195
-4.1406 0.8594 -0.2344 0 60 195
-3.6719 0.0781 -0.7031 0 37 217
-3.5156 0.0781 -0.7031 0 37 217
-3.6719 0.2344 -0.7031 0 37 217
-3.5156 0.2344 -0.7031 0 37 217
-3.3594 0.0781 -0.7031 0 37 217
-3.3594 0.2344 -0.7031 0 37 217
-3.2031 0.2344 -0.7031 0 37 217
-3.6719 0.3906 -0.7031 0 37 217
-3.3594 0.3906 -0.7031 0 37 217
-3.2031 0.3906 -0.7031 0 37 217
-3.2031 0.5469 -0.7031 0 37 217
-3.6719 0.2344 -0.5469 0 45 210
-3.6719 0.3906 -0.5469 0 45 210
-3.5156 0.3906 -0.5469 0 45 210
-3.6719 0.5469 -0.5469 0 45 210
-3.5156 0.5469 -0.5469 0 45 210
-3.3594 0.5469 -0.5469 0 45 210
-3.2031 0.5469 -0.5469 0 45 210
-3.6719 0.7031 -0.5469 0 45 210
-3.5156 0.7031 -0.5469 0 45 210
-3.5156 0.8594 -0.5469 0 45 210
-3.3594 0.7031 -0.5469 0 45 210
-3.2031 0.7031 -0.5469 0 45 210
-3.3594 0.8594 -0.5469 0 45 210
-3.2031 0.8594 -0.5469 0 45 210
-3.3594 1.0156 -0.5469 0 45 210
-3.2031 1.0156 -0.5469 0 45 210
-3.2031 1.1719 -0.5469 0 45 210
-3.0469 0.8594 -0.5469 0 45 210
-2.8906 0.8594 -0.5469 0 45 210
-3.0469 1.0156 -0.5469 0 45 210
-2.8906 1.0156 -0.5469 0 45 210
-3.0469 1.1719 -0.5469 0 45 210
-2.8906 1.1719 -0.5469 0 45 210
-2.7344 1.1719 -0.5469 0 45 210
-3.6719 1.3281 -0.3906 0 52 202
-3.5156 1.3281 -0.3906 0 52 202
-3.5156 1.4844 -0.3906 0 52 202
-3.3594 1.4844 -0.3906 0 52 202
-3.5156 1.6406 -0.3906 0 52 202
-3.3594 1.6406 -0.3906 0 52 202
-3.3594 1.7969 -0.3906 0 52 202
-3.2031 1.7969 -0.3906 0 52 202
-3.0469 1.3281 -0.5469 0 45 210
-2.8906 1.3281 -0.5469 0 45 210
-2.7344 1.3281 -0.5469 0 45 210
-2.5781 1.3281 -0.5469 0 45 210
-2.7344 1.4844 -0.5469 0 45 210
-2.5781 1.4844 -0.5469 0 45 210
-3.0469 1.7969 -0.3906 0 52 202
-3.2031 1.9531 -0.3906 0 52 202
-3.0469 1.9531 -0.3906 0 52 202
-2.8906 1.9531 -0.3906 0 52 202
-2.8906 2.1094 -0.3906 0 52 202
-2.7344 1.9531 -0.3906 0 52 202
-2.7344 2.1094 -0.3906 0 52 202
-2.5781 2.1094 -0.3906 0 52 202
-2.5781 2.2656 -0.3906 0 52 202
-1.0156 0.0781 -0.0781 0 67 187
-1.1719 0.2344 -0.0781 0 67 187
-1.0156 0.2344 -0.0781 0 67 187
-0.7031 0.2344 -0.2344 0 60 195
-0.8594 0.0781 -0.0781 0 67 187
-0.8594 0.2344 -0.0781 0 67 187
-0.7031 0.2344 -0.0781 0 67 187
-1.0156 0.3906 -0.0781 0 67 187
-0.8594 0.3906 -0.0781 0 67 187
-0.5469 0.2344 -0.2344 0 60 195
-0.3906 0.2344 -0.2344 0 60 195
-0.2344 0.0781 -0.2344 0 60 195
-0.0781 0.0781 -0.2344 0 60 195
-0.2344 0.2344 -0.2344 0 60 195
-0.0781 0.2344 -0.2344 0 60 195
-0.2344 0.3906 -0.2344 0 60 195
-0.0781 0.3906 -0.2344 0 60 195
-0.2344 0.3906 -0.0781 0 67 187
-0.0781 0.5469 -0.0781 0 67 187
-2.4219 2.2656 -0.3906 0 52 202
-2.2656 2.2656 -0.3906 0 52 202
-2.4219 2.4219 -0.3906 0 52 202
-2.2656 2.4219 -0.3906 0 52 202
-1.9531 2.2656 -0.5469 0 45 210
-1.9531 2.4219 -0.5469 0 45 210
-2.1094 2.2656 -0.3906 0 52 202
-2.1094 2.4219 -0.3906 0 52 202
-1.9531 2.4219 -0.3906 0 52 202
-1.7969 2.4219 -0.5469 0 45 210
-1.9531 2.5781 -0.3906 0 52 202
-1.6406 2.5781 -0.5469 0 45 210
-1.7969 2.5781 -0.3906 0 52 202
-1.4844 2.5781 -0.5469 0 45 210
-9.6094 0.8594 4.7656 45 210 0
-9.6094 0.7031 4.9219 52 202 0
-9.1406 2.7344 4.7656 45 210 0
-9.2969 3.0469 4.9219 52 202 0
-9.7656 6.0156 1.1719 0 127 127
-9.7656 6.1719 1.1719 0 127 127
-9.4531 6.0156 1.1719 0 127 127
-8.8281 5.7031 1.1719 0 127 127
-8.8281 5.8594 1.1719 0 127 127
-9.2969 6.0156 1.1719 0 127 127
-8.8281 6.0156 1.1719 0 127 127
-7.8906 5.5469 1.1719 0 127 127
-7.7344 5.5469 1.1719 0 127 127
-7.5781 5.5469 1.1719 0 127 127
-8.6719 5.8594 1.1719 0 127 127
-8.3594 5.8594 1.1719 0 127 127
-8.2031 5.8594 1.1719 0 127 127
-8.5156 6.0156 1.1719 0 127 127
-8.3594 6.0156 1.1719 0 127 127
-8.2031 6.0156 1.1719 0 127 127
-8.2031 6.1719 1.1719 0 127 127
-8.0469 5.8594 1.1719 0 127 127
-7.7344 5.8594 1.1719 0 127 127
-7.8906 6.0156 1.1719 0 127 127
-7.5781 6.0156 1.0156 0 120 135
-7.7344 6.0156 1.1719 0 127 127
-8.6719 6.3281 1.1719 0 127 127
-8.0469 6.4844 1.1719 0 127 127
-7.7344 6.3281 1.1719 0 127 127
-7.7344 6.4844 1.1719 0 127 127
-9.7656 5.0781 1.4844 0 142 112
-9.7656 5.7031 1.6406 0 150 105
-9.4531 5.7031 1.6406 0 150 105
-9.7656 6.1719 1.6406 0 150 105
-9.4531 6.0156 1.6406 0 150 105
-9.6094 6.1719 1.6406 0 150 105
-9.2969 5.7031 1.4844 0 142 112
-8.9844 5.7031 1.4844 0 142 112
-8.8281 6.1719 1.4844 0 142 112
-9.2969 6.1719 1.6406 0 150 105
-8.9844 6.1719 1.6406 0 150 105
-8.6719 5.7031 1.4844 0 142 112
-8.3594 5.7031 1.4844 0 142 112
-8.5156 6.1719 1.4844 0 142 112
-8.3594 6.1719 1.4844 0 142 112
-8.0469 5.7031 1.3281 0 135 120
-7.8906 5.7031 1.3281 0 135 120
-7.7344 5.7031 1.3281 0 135 120
-7.5781 5.8594 1.3281 0 135 120
-8.0469 6.0156 1.4844 0 142 112
-7.7344 6.1719 1.4844 0 142 112
-9.4531 6.3281 1.3281 0 135 120
-9.4531 6.6406 1.3281 0 135 120
-9.9219 6.7969 1.7969 0 157 97
-9.7656 6.7969 1.7969 0 157 97
-9.4531 6.6406 1.6406 0 150 105
-9.4531 6.6406 1.7969 0 157 97
-9.1406 6.3281 1.3281 0 135 120
-8.8281 6.6406 1.3281 0 135 120
-8.8281 6.7969 1.3281 0 135 120
-9.1406 6.6406 1.6406 0 150 105
-9.1406 6.6406 1.7969 0 157 97
-8.8281 6.6406 1.6406 0 150 105
-8.8281 6.6406 1.7969 0 157 97
-9.7656 7.4219 1.4844 0 142 112
-8.9844 7.2656 1.6406 0 150 105
-9.9219 6.6406 1.9531 0 165 89
-8.5156 6.6406 1.3281 0 135 120
-8.5156 6.7969 1.3281 0 135 120
-8.2031 6.6406 1.3281 0 135 120
-8.3594 6.6406 1.4844 0 142 112
-8.3594 6.4844 1.6406 0 150 105
-8.6719 6.6406 1.6406 0 150 105
-8.5156 6.6406 1.7969 0 157 97
-8.2031 6.6406 1.6406 0 150 105
-7.8906 6.4844 1.4844 0 142 112
-7.5781 6.4844 1.4844 0 142 112
-7.5781 6.7969 1.4844 0 142 112
-8.0469 6.6406 1.6406 0 150 105
-7.8906 6.7969 1.6406 0 150 105
-7.7344 6.7969 1.6406 0 150 105
-8.6719 7.1094 1.4844 0 142 112
-8.5156 7.1094 1.4844 0 142 112
-8.3594 7.1094 1.4844 0 142 112
-8.2031 7.1094 1.4844 0 142 112
-8.6719 7.2656 1.4844 0 142 112
-7.8906 6.9531 1.3281 0 135 120
-7.8906 6.9531 1.4844 0 142 112
-7.8906 7.1094 1.4844 0 142 112
-7.5781 6.9531 1.3281 0 135 120
-7.7344 6.9531 1.6406 0 150 105
-7.5781 6.9531 1.6406 0 150 105
-6.7969 5.3906 1.0156 0 120 135
-7.4219 5.8594 1.0156 0 120 135
-7.2656 5.8594 1.0156 0 120 135
-7.4219 5.7031 1.1719 0 127 127
-7.2656 5.7031 1.1719 0 127 127
-7.1094 5.7031 1.0156 0 120 135
-6.9531 5.7031 1.1719 0 127 127
-6.9531 6.1719 1.0156 0 120 135
-7.1094 6.1719 1.1719 0 127 127
-6.7969 5.8594 1.0156 0 120 135
-6.6406 5.8594 1.0156 0 120 135
-6.4844 5.7031 1.0156 0 120 135
-6.4844 5.8594 1.0156 0 120 135
-6.3281 5.8594 1.0156 0 120 135
-6.7969 6.1719 1.0156 0 120 135
-6.6406 6.1719 1.0156 0 120 135
-6.7969 6.1719 1.1719 0 127 127
-6.6406 6.1719 1.1719 0 127 127
-6.4844 6.1719 1.0156 0 120 135
-6.3281 6.1719 1.0156 0 120 135
-6.4844 6.1719 1.1719 0 127 127
-6.1719 6.0156 1.0156 0 120 135
-6.0156 6.0156 1.0156 0 120 135
-6.1719 6.1719 1.0156 0 120 135
-6.0156 6.1719 1.0156 0 120 135
-5.8594 6.1719 1.0156 0 120 135
-5.7031 6.1719 1.0156 0 120 135
-5.5469 6.1719 1.0156 0 120 135
-7.4219 6.3281 1.1719 0 127 127
-7.2656 6.3281 1.1719 0 127 127
-6.7969 6.6406 1.1719 0 127 127
-6.6406 6.6406 1.1719 0 127 127
-6.4844 6.6406 1.1719 0 127 127
-6.3281 6.6406 1.1719 0 127 127
-6.0156 6.3281 1.1719 0 127 127
-5.7031 6.3281 1.0156 0 120 135
-5.8594 6.3281 1.1719 0 127 127
-6.1719 6.6406 1.1719 0 127 127
-6.1719 6.7969 1.1719 0 127 127
-6.0156 6.7969 1.1719 0 127 127
-5.8594 6.7969 1.0156 0 120 135
-5.7031 6.7969 1.0156 0 120 135
-5.8594 6.7969 1.1719 0 127 127
-5.7031 6.7969 1.1719 0 127 127
-5.5469 6.3281 1.0156 0 120 135
-5.3906 6.3281 1.0156 0 120 135
-5.2344 6.3281 1.0156 0 120 135
-5.0781 6.3281 1.0156 0 120 135
-5.5469 6.7969 1.0156 0 120 135
-5.3906 6.7969 1.0156 0 120 135
-5.5469 6.7969 1.1719 0 127 127
-5.3906 6.7969 1.1719 0 127 127
-5.0781 6.6406 1.0156 0 120 135
-5.2344 6.7969 1.0156 0 120 135
-5.0781 6.7969 1.0156 0 120 135
-5.2344 6.7969 1.1719 0 127 127
-5.0781 6.7969 1.1719 0 127 127
-6.7969 6.1719 1.3281 0 135 120
-7.4219 6.3281 1.4844 0 142 112
-7.4219 6.4844 1.4844 0 142 112
-7.2656 6.4844 1.4844 0 142 112
-7.1094 6.4844 1.4844 0 142 112
-7.2656 6.6406 1.3281 0 135 120
-7.2656 6.7969 1.3281 0 135 120
-7.4219 6.7969 1.4844 0 142 112
-6.9531 6.6406 1.3281 0 135 120
-7.1094 6.7969 1.3281 0 135 120
-6.9531 6.6406 1.4844 0 142 112
-6.7969 6.6406 1.3281 0 135 120
-6.6406 6.6406 1.3281 0 135 120
-6.6406 6.7969 1.3281 0 135 120
-6.7969 6.6406 1.4844 0 142 112
-6.4844 6.6406 1.3281 0 135 120
-6.3281 6.6406 1.3281 0 135 120
-6.4844 6.7969 1.3281 0 135 120
-6.3281 6.7969 1.3281 0 135 120
-7.4219 7.4219 1.4844 0 142 112
-7.2656 7.4219 1.4844 0 142 112
-6.9531 7.2656 1.4844 0 142 112
-7.4219 7.1094 1.6406 0 150 105
-6.6406 7.2656 1.3281 0 135 120
-6.4844 7.2656 1.3281 0 135 120
-6.3281 7.2656 1.3281 0 135 120
-6.1719 6.6406 1.3281 0 135 120
-5.8594 6.7969 1.3281 0 135 120
-5.7031 6.7969 1.3281 0 135 120
-6.1719 6.9531 1.3281 0 135 120
-6.0156 6.9531 1.3281 0 135 120
-6.1719 7.2656 1.3281 0 135 120
-6.0156 7.4219 1.3281 0 135 120
-5.8594 7.2656 1.3281 0 135 120
-5.8594 7.4219 1.3281 0 135 120
-5.7031 7.4219 1.3281 0 135 120
-5.5469 7.4219 1.3281 0 135 120
-5.3906 7.4219 1.3281 0 135 120
-5.2344 7.4219 1.3281 0 135 120
-9.6094 7.5781 1.6406 0 150 105
-9.4531 7.5781 1.6406 0 150 105
-5.5469 7.5781 1.3281 0 135 120
-5.3906 7.5781 1.3281 0 135 120
-5.2344 7.5781 1.3281 0 135 120
-5.0781 7.5781 1.3281 0 135 120
-4.9219 6.1719 1.0156 0 120 135
-4.9219 6.3281 1.0156 0 120 135
-4.7656 6.4844 1.0156 0 120 135
-4.6094 6.4844 1.0156 0 120 135
-4.9219 6.7969 1.0156 0 120 135
-4.7656 6.7969 1.0156 0 120 135
-4.9219 6.7969 1.1719 0 127 127
-4.7656 6.7969 1.1719 0 127 127
-4.6094 6.7969 1.0156 0 120 135
-4.1406 6.7969 1.0156 0 120 135
-4.6094 6.9531 1.0156 0 120 135
-4.4531 6.9531 1.0156 0 120 135
-4.4531 7.1094 1.0156 0 120 135
-4.6094 6.9531 1.1719 0 127 127
-4.4531 7.1094 1.1719 0 127 127
-4.2969 7.1094 1.0156 0 120 135
-4.1406 7.1094 1.0156 0 120 135
-4.1406 7.2656 1.0156 0 120 135
-4.1406 7.4219 1.0156 0 120 135
-4.1406 7.2656 1.1719 0 127 127
-3.9844 7.2656 1.0156 0 120 135
-3.9844 7.4219 1.0156 0 120 135
-3.8281 7.4219 1.0156 0 120 135
-3.9844 7.4219 1.1719 0 127 127
-3.6719 7.4219 1.0156 0 120 135
-4.7656 7.5781 1.1719 0 127 127
-4.6094 7.5781 1.1719 0 127 127
-4.4531 7.5781 1.1719 0 127 127
-4.2969 7.7344 1.1719 0 127 127
-3.8281 7.5781 1.0156 0 120 135
-3.8281 7.5781 1.1719 0 127 127
-4.1406 7.8906 1.1719 0 127 127
-4.1406 8.0469 1.1719 0 127 127
-3.9844 8.0469 1.1719 0 127 127
-3.8281 8.0469 1.1719 0 127 127
-3.8281 8.2031 1.1719 0 127 127
-3.6719 7.5781 1.0156 0 120 135
-3.5156 7.5781 1.0156 0 120 135
-3.6719 7.7344 1.0156 0 120 135
-3.5156 7.7344 1.0156 0 120 135
-3.6719 7.5781 1.1719 0 127 127
-3.5156 7.7344 1.1719 0 127 127
-3.6719 7.8906 1.1719 0 127 127
-3.5156 7.8906 1.1719 0 127 127
-3.3594 7.8906 1.0156 0 120 135
-3.2031 8.0469 1.0156 0 120 135
-3.3594 7.8906 1.1719 0 127 127
-3.2031 8.0469 1.1719 0 127 127
-3.6719 8.3594 1.1719 0 127 127
-3.5156 8.3594 1.1719 0 127 127
-3.5156 8.5156 1.1719 0 127 127
-3.3594 8.5156 1.1719 0 127 127
-3.3594 8.6719 1.1719 0 127 127
-3.2031 8.6719 1.1719 0 127 127
-3.0469 8.2031 1.0156 0 120 135
-3.0469 8.2031 1.1719 0 127 127
-3.0469 8.3594 1.1719 0 127 127
-2.8906 8.3594 1.1719 0 127 127
-2.7344 8.5156 1.1719 0 127 127
-2.7344 8.6719 1.1719 0 127 127
-2.5781 8.6719 1.1719 0 127 127
-3.2031 8.8281 1.1719 0 127 127
-3.0469 8.8281 1.1719 0 127 127
-2.8906 8.8281 1.1719 0 127 127
-3.0469 8.9844 1.1719 0 127 127
-2.8906 8.9844 1.1719 0 127 127
-2.8906 9.1406 1.1719 0 127 127
-2.7344 9.1406 1.1719 0 127 127
-2.5781 9.1406 1.1719 0 127 127
-2.7344 9.2969 1.1719 0 127 127
-2.5781 9.2969 1.1719 0 127 127
-2.7344 9.4531 1.1719 0 127 127
-2.5781 9.4531 1.1719 0 127 127
-2.5781 9.6094 1.1719 0 127 127
-2.5781 9.7656 1.1719 0 127 127
-4.9219 7.5781 1.3281 0 135 120
-4.7656 7.5781 1.3281 0 135 120
-4.7656 7.7344 1.3281 0 135 120
-4.6094 7.5781 1.3281 0 135 120
-4.4531 7.5781 1.3281 0 135 120
-4.6094 7.7344 1.3281 0 135 120
-4.4531 7.7344 1.3281 0 135 120
-4.4531 7.8906 1.3281 0 135 120
-4.4531 8.0469 1.3281 0 135 120
-4.2969 7.8906 1.3281 0 135 120
-4.2969 8.0469 1.3281 0 135 120
-4.1406 8.0469 1.3281 0 135 120
-3.9844 8.0469 1.3281 0 135 120
-3.9844 8.2031 1.3281 0 135 120
-3.8281 8.3594 1.3281 0 135 120
-3.6719 8.3594 1.3281 0 135 120
-3.6719 8.5156 1.3281 0 135 120
-3.5156 8.5156 1.3281 0 135 120
-3.5156 8.6719 1.3281 0 135 120
-3.3594 8.6719 1.3281 0 135 120
-3.2031 8.8281 1.3281 0 135 120
-3.2031 8.9844 1.3281 0 135 120
-3.0469 8.9844 1.3281 0 135 120
-2.8906 9.1406 1.3281 0 135 120
-2.8906 9.2969 1.3281 0 135 120
-2.7344 9.2969 1.3281 0 135 120
-2.4219 8.8281 1.1719 0 127 127
-2.4219 8.9844 1.1719 0 127 127
-2.2656 8.9844 1.1719 0 127 127
-2.1094 9.1406 1.1719 0 127 127
-2.1094 9.2969 1.1719 0 127 127
-2.4219 9.6094 1.1719 0 127 127
-2.4219 9.7656 1.1719 0 127 127
-2.2656 9.7656 1.1719 0 127 127
-2.4219 9.9219 1.1719 0 127 127
-2.2656 9.9219 1.1719 0 127 127
-2.2656 10.0781 1.1719 0 127 127
-2.1094 10.0781 1.1719 0 127 127
-2.1094 10.2344 1.1719 0 127 127
-2.1094 10.3906 1.1719 0 127 127
-1.9531 10.3906 1.1719 0 127 127
-1.7969 10.5469 1.1719 0 127 127
-1.9531 10.7031 1.1719 0 127 127
-1.7969 10.8594 1.1719 0 127 127
-1.7969 11.0156 1.1719 0 127 127
-1.6406 11.0156 1.1719 0 127 127
-1.7969 11.1719 1.1719 0 127 127
-1.6406 11.4844 1.1719 0 127 127
-1.4844 11.3281 1.1719 0 127 127
-1.4844 11.6406 1.1719 0 127 127
-2.2656 10.0781 1.3281 0 135 120
-2.2656 10.2344 1.3281 0 135 120
-2.1094 10.3906 1.3281 0 135 120
-1.9531 10.7031 1.3281 0 135 120
-1.7969 10.8594 1.3281 0 135 120
-1.7969 11.0156 1.3281 0 135 120
-1.6406 11.3281 1.3281 0 135 120
-1.6406 11.7969 1.3281 0 135 120
-1.4844 11.6406 1.3281 0 135 120
-1.4844 11.7969 1.3281 0 135 120
-1.4844 11.9531 1.3281 0 135 120
-1.3281 11.9531 1.3281 0 135 120
-1.4844 12.2656 1.3281 0 135 120
-1.3281 12.4219 1.3281 0 135 120
-1.4844 12.4219 1.4844 0 142 112
-1.3281 12.5781 1.3281 0 135 120
-1.4844 12.7344 1.4844 0 142 112
-1.3281 13.3594 1.4844 0 142 112
-1.1719 12.7344 1.4844 0 142 112
-1.1719 12.8906 1.3281 0 135 120
-1.0156 13.2031 1.4844 0 142 112
-1.1719 13.6719 1.3281 0 135 120
-1.1719 13.9844 1.4844 0 142 112
-1.0156 13.9844 1.4844 0 142 112
-1.0156 14.2969 1.4844 0 142 112
-1.1719 14.7656 1.6406 0 150 105
-1.0156 15.2344 1.4844 0 142 112
-1.0156 16.0156 1.7969 0 157 97
-1.0156 16.1719 1.7969 0 157 97
-17.5781 1.3281 5.0781 60 195 0
-17.5781 1.7969 5.0781 60 195 0
-17.5781 1.7969 5.2344 67 187 0
-17.8906 1.6406 5.3906 75 179 0
-17.5781 1.9531 5.0781 60 195 0
-17.7344 0.3906 7.4219 172 82 0
-17.4219 1.1719 5.0781 60 195 0
-17.4219 1.3281 5.2344 67 187 0
-16.9531 1.9531 5.0781 60 195 0
-16.9531 0.3906 7.2656 164 90 0
-16.7969 0.0781 6.9531 149 105 0
-16.6406 0.2344 6.9531 149 105 0
-16.4844 0.2344 7.1094 157 97 0
-16.6406 0.5469 7.1094 157 97 0
-16.3281 0.3906 6.9531 149 105 0
-16.3281 0.3906 7.1094 157 97 0
-16.3281 0.5469 7.1094 157 97 0
-16.7969 0.2344 7.2656 164 90 0
-16.6406 0.5469 7.2656 164 90 0
-16.7969 0.3906 7.4219 172 82 0
-16.6406 0.5469 7.4219 172 82 0
-17.2656 0.8594 7.4219 172 82 0
-16.6406 0.7031 7.1094 157 97 0
-16.3281 0.7031 6.9531 149 105 0
-16.4844 0.8594 7.1094 157 97 0
-16.3281 1.0156 7.1094 157 97 0
-16.3281 1.1719 7.1094 157 97 0
-16.6406 0.8594 7.2656 164 90 0
-16.4844 0.8594 7.2656 164 90 0
-16.4844 0.8594 7.4219 172 82 0
-16.6406 1.1719 7.4219 172 82 0
-16.4844 1.1719 7.2656 164 90 0
-16.3281 1.0156 7.4219 172 82 0
-15.8594 0.5469 6.7969 142 112 0
-16.1719 0.8594 6.9531 149 105 0
-16.1719 0.7031 7.1094 157 97 0
-15.7031 1.1719 7.1094 157 97 0
-16.6406 1.6406 7.2656 164 90 0
-16.4844 1.7969 7.4219 172 82 0
-16.4844 2.2656 7.4219 172 82 0
-16.3281 2.2656 7.4219 172 82 0
-16.4844 2.4219 7.4219 172 82 0
-15.7031 2.4219 7.2656 164 90 0
-15.2344 2.4219 6.9531 149 105 0
-15.0781 2.4219 6.9531 149 105 0
-17.2656 2.7344 5.0781 60 195 0
-17.2656 2.8906 5.0781 60 195 0
-17.2656 3.2031 5.0781 60 195 0
-16.1719 3.2031 5.0781 60 195 0
-15.7031 2.8906 7.4219 172 82 0
-15.7031 3.0469 7.4219 172 82 0
-15.2344 2.5781 7.1094 157 97 0
-15.3906 2.8906 7.1094 157 97 0
-15.3906 2.5781 7.2656 164 90 0
-15.5469 2.7344 7.2656 164 90 0
-15.3906 2.7344 7.2656 164 90 0
-15.2344 2.8906 7.2656 164 90 0
-15.7031 3.3594 7.4219 172 82 0
-15.8594 3.5156 7.4219 172 82 0
-15.5469 3.2031 7.2656 164 90 0
-15.3906 3.3594 7.4219 172 82 0
-15.2344 3.2031 7.2656 164 90 0
-18.9844 0.2344 7.8906 195 60 0
-18.6719 0.0781 7.8906 195 60 0
-18.5156 0.2344 7.8906 195 60 0
-18.5156 0.0781 8.0469 202 52 0
-18.5156 0.2344 8.0469 202 52 0
-18.6719 0.3906 7.8906 195 60 0
-18.3594 1.3281 8.0469 202 52 0
-18.2031 1.7969 8.0469 202 52 0
-17.7344 1.7969 7.7344 187 67 0
-17.8906 1.4844 7.8906 195 60 0
-17.5781 1.4844 7.8906 195 60 0
-17.8906 1.6406 7.8906 195 60 0
-18.0469 2.1094 8.0469 202 52 0
-17.7344 2.1094 7.8906 195 60 0
-17.8906 2.2656 7.8906 195 60 0
-17.8906 2.2656 8.0469 202 52 0
-18.3594 1.3281 8.2031 210 45 0
-18.2031 1.9531 8.2031 210 45 0
-18.2031 1.9531 8.3594 217 37 0
-18.0469 2.1094 8.2031 210 45 0
-17.8906 2.4219 8.2031 210 45 0
-17.2656 1.0156 7.5781 179 75 0
-17.2656 1.1719 7.5781 179 75 0
-17.2656 1.3281 7.5781 179 75 0
-17.2656 1.4844 7.5781 179 75 0
-17.2656 1.4844 7.7344 187 67 0
-17.4219 1.6406 7.8906 195 60 0
-17.2656 1.6406 7.8906 195 60 0
-16.6406 2.1094 7.5781 179 75 0
-16.4844 1.9531 7.5781 179 75 0
-16.3281 1.9531 7.5781 179 75 0
-16.3281 2.1094 7.5781 179 75 0
-16.6406 2.2656 7.7344 187 67 0
-16.4844 2.2656 7.5781 179 75 0
-16.4844 2.4219 7.5781 179 75 0
-16.4844 2.4219 7.7344 187 67 0
-16.9531 2.5781 7.8906 195 60 0
-16.6406 2.7344 7.5781 179 75 0
-16.7969 2.5781 7.7344 187 67 0
-16.3281 2.5781 7.5781 179 75 0
-16.4844 2.7344 7.7344 187 67 0
-16.4844 2.8906 7.5781 179 75 0
-16.4844 2.8906 7.7344 187 67 0
-16.4844 3.0469 7.7344 187 67 0
-16.3281 2.8906 7.8906 195 60 0
-16.3281 3.0469 7.8906 195 60 0
-16.3281 3.2031 7.7344 187 67 0
-15.8594 3.0469 7.5781 179 75 0
-16.0156 3.2031 7.5781 179 75 0
-16.0156 3.3594 7.5781 179 75 0
-17.2656 3.2031 8.8281 240 15 0
-14.7656 1.3281 6.6406 134 120 0
-14.9219 1.4844 6.7969 142 112 0
-14.9219 1.6406 6.6406 134 120 0
-14.9219 1.7969 6.6406 134 120 0
-14.9219 1.9531 6.6406 134 120 0
-14.7656 1.9531 6.7969 142 112 0
-14.9219 2.2656 7.1094 157 97 0
-11.3281 0.2344 5.3906 75 179 0
-11.3281 0.2344 5.5469 82 172 0
-11.6406 0.3906 5.5469 82 172 0
-11.3281 0.7031 5.5469 82 172 0
-11.4844 0.8594 5.5469 82 172 0
-11.9531 0.5469 5.7031 90 164 0
-11.9531 0.5469 5.8594 97 157 0
-11.6406 0.3906 5.7031 90 164 0
-11.9531 0.7031 5.8594 97 157 0
-11.9531 0.7031 6.0156 105 149 0
-11.7969 1.0156 5.8594 97 157 0
-11.1719 1.0156 5.3906 75 179 0
-10.7031 1.1719 5.3906 75 179 0
-10.8594 1.0156 5.5469 82 172 0
-10.8594 1.1719 5.5469 82 172 0
-10.3906 1.0156 5.2344 67 187 0
-10.3906 1.1719 5.2344 67 187 0
-11.3281 1.3281 5.5469 82 172 0
-11.7969 1.4844 5.8594 97 157 0
-11.6406 1.4844 5.8594 97 157 0
-11.7969 1.6406 5.8594 97 157 0
-11.3281 1.7969 5.7031 90 164 0
-11.4844 1.6406 5.8594 97 157 0
-11.4844 1.7969 5.8594 97 157 0
-11.7969 1.7969 6.0156 105 149 0
-11.6406 1.9531 5.8594 97 157 0
-11.4844 1.9531 5.8594 97 157 0
-11.4844 2.1094 5.8594 97 157 0
-11.7969 1.9531 6.1719 112 142 0
-11.7969 2.1094 6.1719 112 142 0
-11.6406 2.4219 6.0156 105 149 0
-11.6406 2.2656 6.1719 112 142 0
-11.4844 2.2656 6.0156 105 149 0
-10.7031 1.3281 5.3906 75 179 0
-10.5469 1.7969 5.0781 60 195 0
-10.0781 1.7969 5.0781 60 195 0
-10.8594 2.1094 5.2344 67 187 0
-10.7031 2.1094 5.2344 67 187 0
