ply
format ascii 1.0
comment OctoMap 3D export - Moose Robot
comment Resolution: 0.100 m
element vertex 1496
property float x
property float y
property float z
property uchar red
property uchar green
property uchar blue
end_header
1.1162 7.9587 -2.7010 0 97 157
0.4912 8.1149 -2.2322 0 114 140
0.6474 8.4274 -2.3885 0 108 146
0.6474 8.5837 -2.3885 0 108 146
0.6474 8.8962 -2.3885 0 108 146
0.6474 9.0524 -2.3885 0 108 146
0.0224 8.4274 -2.0760 0 120 134
-0.4463 8.4274 -1.6072 0 137 117
-0.1338 9.2087 -2.0760 0 120 134
-0.4463 8.7399 -1.7635 0 131 123
-0.2901 8.8962 -1.7635 0 131 123
-0.4463 9.0524 -1.7635 0 131 123
0.9599 8.1149 -2.5447 0 103 151
0.8037 8.2712 -2.5447 0 103 151
0.9599 8.2712 -2.5447 0 103 151
1.1162 8.1149 -2.7010 0 97 157
1.1162 8.2712 -2.7010 0 97 157
1.2724 8.2712 -2.7010 0 97 157
0.8037 8.4274 -2.5447 0 103 151
1.1162 8.4274 -2.7010 0 97 157
1.2724 8.4274 -2.7010 0 97 157
1.1162 8.5837 -2.7010 0 97 157
0.8037 8.4274 -2.3885 0 108 146
0.9599 8.8962 -2.7010 0 97 157
0.9599 8.8962 -2.5447 0 103 151
1.1162 8.8962 -2.7010 0 97 157
0.9599 9.2087 -2.7010 0 97 157
1.1162 9.0524 -2.7010 0 97 157
1.1162 9.2087 -2.7010 0 97 157
-2.4776 9.3649 -2.8572 0 91 163
-2.6338 9.5212 -2.8572 0 91 163
-2.7901 9.8337 -2.8572 0 91 163
-2.6338 9.8337 -2.8572 0 91 163
-1.8526 9.6774 -3.1697 0 80 174
-2.0088 9.8337 -3.1697 0 80 174
-2.3213 9.3649 -2.8572 0 91 163
-2.1651 9.3649 -2.8572 0 91 163
-2.4776 10.3024 -3.1697 0 80 174
-2.6338 10.4587 -3.1697 0 80 174
-2.4776 10.4587 -3.1697 0 80 174
-2.9463 9.9899 -2.8572 0 91 163
-2.3213 9.9899 -3.1697 0 80 174
-2.1651 9.9899 -3.1697 0 80 174
-2.3213 10.1462 -3.1697 0 80 174
-2.3213 10.3024 -3.1697 0 80 174
-1.8526 10.4587 -3.1697 0 80 174
-0.9151 10.1462 -3.4822 0 68 186
-0.7588 9.9899 -3.4822 0 68 186
-1.0713 10.4587 -3.4822 0 68 186
-1.6963 9.3649 -3.1697 0 80 174
-1.6963 9.5212 -3.1697 0 80 174
-1.2276 9.5212 -3.1697 0 80 174
-1.2276 9.6774 -3.1697 0 80 174
-1.3838 9.8337 -3.1697 0 80 174
-1.0713 9.3649 -3.1697 0 80 174
-0.6026 9.3649 -3.3260 0 74 180
-0.7588 9.5212 -3.3260 0 74 180
-0.6026 9.5212 -3.3260 0 74 180
-0.9151 9.8337 -3.3260 0 74 180
-0.7588 9.6774 -3.3260 0 74 180
-0.7588 9.8337 -3.3260 0 74 180
-0.6026 9.8337 -3.1697 0 80 174
-0.9151 9.5212 -3.0135 0 85 169
-0.7588 9.6774 -3.0135 0 85 169
-0.6026 9.8337 -3.0135 0 85 169
-1.5401 10.1462 -3.1697 0 80 174
-1.3838 9.9899 -3.3260 0 74 180
-1.3838 10.1462 -3.3260 0 74 180
-1.6963 10.3024 -3.1697 0 80 174
-1.5401 10.3024 -3.1697 0 80 174
-0.9151 10.1462 -3.3260 0 74 180
-0.6026 9.9899 -3.1697 0 80 174
-1.0713 10.3024 -3.3260 0 74 180
-1.8526 11.2399 -3.4822 0 68 186
-2.0088 11.3962 -3.4822 0 68 186
-1.8526 11.3962 -3.4822 0 68 186
-2.1651 11.5524 -3.4822 0 68 186
-2.7901 10.6149 -3.1697 0 80 174
-2.4776 11.0837 -3.1697 0 80 174
-1.8526 10.6149 -3.3260 0 74 180
-2.0088 10.7712 -3.3260 0 74 180
-2.3213 10.9274 -3.1697 0 80 174
-2.1651 10.9274 -3.1697 0 80 174
-1.5401 10.7712 -3.4822 0 68 186
-1.2276 10.6149 -3.4822 0 68 186
-1.3838 10.7712 -3.4822 0 68 186
-1.5401 10.9274 -3.4822 0 68 186
-1.5401 11.0837 -3.4822 0 68 186
-0.6026 10.7712 -3.6385 0 63 191
-0.7588 10.6149 -3.4822 0 68 186
-0.6026 10.6149 -3.4822 0 68 186
-1.0713 11.0837 -3.4822 0 68 186
-0.9151 11.0837 -3.4822 0 68 186
-0.7588 10.9274 -3.6385 0 63 191
-0.7588 10.9274 -3.4822 0 68 186
-1.6963 11.2399 -3.4822 0 68 186
-1.2276 11.2399 -3.4822 0 68 186
-1.2276 11.5524 -3.6385 0 63 191
-1.3838 11.7087 -3.6385 0 63 191
-0.6026 11.5524 -3.7947 0 57 197
-0.7588 11.7087 -3.7947 0 57 197
-1.0713 11.2399 -3.4822 0 68 186
-1.0713 11.5524 -3.6385 0 63 191
-0.6026 9.3649 -1.7635 0 131 123
-1.0713 9.8337 -1.6072 0 137 117
-0.6026 9.6774 -1.7635 0 131 123
-1.2276 9.9899 -1.6072 0 137 117
-1.2276 10.1462 -1.6072 0 137 117
-1.2276 10.3024 -1.6072 0 137 117
-1.3838 10.4587 -1.6072 0 137 117
-0.7588 10.3024 -1.9197 0 126 128
-0.6026 10.3024 -1.9197 0 126 128
-0.7588 10.4587 -1.9197 0 126 128
-1.0713 10.4587 -1.7635 0 131 123
-1.8526 11.2399 -1.6072 0 137 117
-2.0088 11.3962 -1.6072 0 137 117
-2.1651 11.5524 -1.6072 0 137 117
-1.8526 11.7087 -1.6072 0 137 117
-0.6026 11.5524 -2.2322 0 114 140
-0.6026 11.7087 -2.2322 0 114 140
-1.5401 10.6149 -1.6072 0 137 117
-1.6963 10.7712 -1.6072 0 137 117
-1.2276 10.6149 -1.7635 0 131 123
-1.3838 10.7712 -1.7635 0 131 123
-1.6963 11.0837 -1.6072 0 137 117
-1.5401 11.0837 -1.6072 0 137 117
-1.3838 10.9274 -1.7635 0 131 123
-0.9151 10.7712 -1.9197 0 126 128
-0.7588 10.6149 -1.9197 0 126 128
-1.0713 10.9274 -1.9197 0 126 128
-1.0713 11.0837 -1.9197 0 126 128
-0.6026 10.9274 -2.0760 0 120 134
-0.7588 11.0837 -2.0760 0 120 134
-1.2276 11.2399 -1.9197 0 126 128
-1.3838 11.7087 -1.9197 0 126 128
-1.5401 11.2399 -1.7635 0 131 123
-1.6963 11.3962 -1.6072 0 137 117
-1.6963 11.5524 -1.6072 0 137 117
-0.9151 11.3962 -2.0760 0 120 134
-0.7588 11.2399 -2.0760 0 120 134
-1.0713 11.7087 -2.0760 0 120 134
-0.2901 9.5212 -3.4822 0 68 186
-0.1338 9.3649 -3.4822 0 68 186
-0.2901 9.6774 -3.4822 0 68 186
-0.4463 9.8337 -3.4822 0 68 186
-0.2901 9.8337 -3.4822 0 68 186
0.0224 9.8337 -3.6385 0 63 191
0.1787 9.5212 -3.6385 0 63 191
0.1787 9.6774 -3.6385 0 63 191
0.1787 9.8337 -3.6385 0 63 191
-0.4463 9.9899 -3.4822 0 68 186
-0.4463 10.1462 -3.4822 0 68 186
0.0224 9.9899 -3.6385 0 63 191
0.0224 10.1462 -3.6385 0 63 191
-0.4463 10.3024 -3.4822 0 68 186
-0.4463 10.4587 -3.4822 0 68 186
-0.1338 10.3024 -3.6385 0 63 191
-0.1338 10.4587 -3.6385 0 63 191
0.0224 10.4587 -3.6385 0 63 191
0.3349 10.1462 -3.6385 0 63 191
0.4912 9.9899 -3.6385 0 63 191
0.3349 10.3024 -3.6385 0 63 191
0.3349 10.4587 -3.6385 0 63 191
-0.4463 9.9899 -3.1697 0 80 174
-0.2901 10.4587 -3.3260 0 74 180
-0.4463 10.3024 -3.1697 0 80 174
-0.1338 10.4587 -3.3260 0 74 180
1.1162 9.5212 -3.9510 0 51 203
1.1162 9.6774 -3.9510 0 51 203
1.1162 9.8337 -3.9510 0 51 203
0.8037 9.3649 -3.6385 0 63 191
0.9599 9.3649 -3.6385 0 63 191
0.8037 9.5212 -3.6385 0 63 191
1.1162 9.9899 -3.9510 0 51 203
0.8037 10.4587 -3.6385 0 63 191
1.4287 9.9899 -3.9510 0 51 203
1.4287 10.1462 -3.9510 0 51 203
1.4287 10.3024 -3.9510 0 51 203
1.4287 10.4587 -3.9510 0 51 203
1.7412 10.4587 -3.9510 0 51 203
1.4287 9.3649 -2.8572 0 91 163
1.4287 9.5212 -2.8572 0 91 163
1.7412 9.3649 -3.0135 0 85 169
1.7412 9.5212 -3.0135 0 85 169
1.7412 9.6774 -3.0135 0 85 169
1.2724 9.9899 -2.8572 0 91 163
1.2724 10.3024 -2.8572 0 91 163
1.2724 10.4587 -2.8572 0 91 163
1.4287 9.9899 -2.8572 0 91 163
-0.2901 10.7712 -3.6385 0 63 191
-0.1338 10.6149 -3.6385 0 63 191
-0.1338 10.7712 -3.6385 0 63 191
0.0224 10.7712 -3.4822 0 68 186
-0.2901 10.9274 -3.6385 0 63 191
-0.2901 11.0837 -3.6385 0 63 191
0.0224 11.0837 -3.6385 0 63 191
0.0224 10.9274 -3.4822 0 68 186
0.1787 10.9274 -3.7947 0 57 197
0.1787 11.0837 -3.7947 0 57 197
0.3349 10.6149 -3.6385 0 63 191
0.1787 10.7712 -3.6385 0 63 191
0.6474 10.7712 -3.6385 0 63 191
0.1787 11.0837 -3.4822 0 68 186
0.6474 10.9274 -3.6385 0 63 191
-0.4463 11.2399 -3.7947 0 57 197
-0.2901 11.2399 -3.7947 0 57 197
-0.4463 11.3962 -3.7947 0 57 197
0.0224 11.2399 -3.7947 0 57 197
-0.1338 11.3962 -3.7947 0 57 197
0.0224 11.3962 -3.7947 0 57 197
-0.1338 11.7087 -3.7947 0 57 197
0.0224 11.7087 -3.7947 0 57 197
0.6474 11.2399 -3.7947 0 57 197
0.3349 11.7087 -3.7947 0 57 197
0.4912 11.5524 -3.7947 0 57 197
0.4912 11.7087 -3.7947 0 57 197
0.3349 11.2399 -3.4822 0 68 186
0.4912 11.3962 -3.6385 0 63 191
0.4912 11.5524 -3.6385 0 63 191
0.6474 11.5524 -3.6385 0 63 191
0.6474 11.7087 -3.6385 0 63 191
0.0224 10.7712 -3.3260 0 74 180
0.9599 10.9274 -3.9510 0 51 203
0.9599 11.0837 -3.9510 0 51 203
1.1162 10.9274 -3.9510 0 51 203
1.2724 11.0837 -3.9510 0 51 203
0.8037 10.6149 -3.6385 0 63 191
0.8037 10.7712 -3.6385 0 63 191
0.8037 10.9274 -3.6385 0 63 191
1.7412 10.7712 -3.9510 0 51 203
0.9599 11.2399 -3.9510 0 51 203
1.2724 11.2399 -3.9510 0 51 203
1.2724 11.3962 -3.9510 0 51 203
0.9599 11.5524 -3.9510 0 51 203
1.2724 11.5524 -3.9510 0 51 203
1.2724 11.7087 -3.9510 0 51 203
1.2724 10.6149 -2.8572 0 91 163
1.1162 11.0837 -2.8572 0 91 163
1.1162 11.3962 -2.8572 0 91 163
0.9599 11.7087 -2.8572 0 91 163
1.1162 11.7087 -2.8572 0 91 163
1.4287 11.3962 -3.0135 0 85 169
1.4287 11.7087 -3.0135 0 85 169
0.6474 10.1462 -2.5447 0 103 151
0.6474 10.3024 -2.5447 0 103 151
-0.2901 9.5212 -2.0760 0 120 134
0.0224 9.3649 -2.0760 0 120 134
-0.2901 9.6774 -2.0760 0 120 134
-0.1338 9.8337 -2.0760 0 120 134
-0.2901 9.9899 -2.0760 0 120 134
-0.2901 10.3024 -2.0760 0 120 134
-0.2901 10.4587 -2.0760 0 120 134
0.9599 9.3649 -2.7010 0 97 157
1.1162 9.3649 -2.7010 0 97 157
1.1162 9.5212 -2.7010 0 97 157
0.9599 9.6774 -2.7010 0 97 157
1.1162 9.6774 -2.7010 0 97 157
1.1162 9.8337 -2.7010 0 97 157
1.1162 9.9899 -2.7010 0 97 157
1.1162 10.1462 -2.7010 0 97 157
0.9599 10.3024 -2.7010 0 97 157
0.9599 10.6149 -2.7010 0 97 157
0.9599 11.0837 -2.7010 0 97 157
-2.6338 7.3337 -0.5135 0 177 77
-2.0088 7.3337 -0.6697 0 171 83
-2.3213 7.0212 -0.5135 0 177 77
-2.9463 7.6462 -0.3572 0 183 71
-2.6338 7.9587 -0.5135 0 177 77
-2.4776 7.9587 -0.5135 0 177 77
-2.0088 7.4899 -0.6697 0 171 83
-1.8526 7.8024 -0.6697 0 171 83
-2.0088 7.9587 -0.6697 0 171 83
-1.2276 7.0212 -0.9822 0 160 94
-1.3838 7.3337 -0.9822 0 160 94
-0.7588 7.0212 -1.2947 0 148 106
-0.6026 7.0212 -1.2947 0 148 106
-0.7588 7.1774 -1.2947 0 148 106
-0.6026 7.1774 -1.2947 0 148 106
-0.6026 7.3337 -1.2947 0 148 106
-1.0713 7.0212 -1.1385 0 154 100
-0.9151 7.3337 -1.1385 0 154 100
-1.3838 7.9587 -0.9822 0 160 94
-0.7588 7.4899 -1.2947 0 148 106
-0.6026 7.4899 -1.2947 0 148 106
-0.7588 7.6462 -1.2947 0 148 106
-0.7588 7.9587 -1.2947 0 148 106
-1.0713 7.6462 -0.9822 0 160 94
-1.6963 7.3337 -0.8260 0 166 88
-1.8526 8.4274 -0.9822 0 160 94
-1.8526 8.7399 -0.9822 0 160 94
-1.8526 9.2087 -1.1385 0 154 100
-2.4776 8.4274 -0.6697 0 171 83
-2.9463 8.1149 -0.5135 0 177 77
-2.6338 8.4274 -0.5135 0 177 77
-2.1651 8.1149 -0.6697 0 171 83
-2.3213 8.2712 -0.6697 0 171 83
-2.1651 8.5837 -0.8260 0 166 88
-2.0088 8.4274 -0.8260 0 166 88
-2.4776 8.8962 -0.8260 0 166 88
-2.7901 9.2087 -0.6697 0 171 83
-2.6338 9.2087 -0.6697 0 171 83
-2.7901 8.7399 -0.5135 0 177 77
-2.9463 8.8962 -0.5135 0 177 77
-2.1651 8.7399 -0.8260 0 166 88
-2.0088 8.8962 -0.8260 0 166 88
-2.1651 9.2087 -0.8260 0 166 88
-2.0088 9.0524 -0.8260 0 166 88
-1.2276 8.2712 -1.1385 0 154 100
-1.6963 8.5837 -0.9822 0 160 94
-1.3838 8.4274 -1.1385 0 154 100
-1.3838 8.5837 -1.1385 0 154 100
-0.6026 8.5837 -1.4510 0 143 111
-1.2276 8.8962 -1.2947 0 148 106
-1.3838 9.0524 -1.2947 0 148 106
-1.2276 9.2087 -1.2947 0 148 106
-1.6963 8.8962 -1.1385 0 154 100
-1.6963 9.0524 -1.1385 0 154 100
-1.5401 9.2087 -1.1385 0 154 100
-1.3838 9.0524 -1.1385 0 154 100
-0.9151 8.7399 -1.2947 0 148 106
-0.7588 8.7399 -1.4510 0 143 111
-0.7588 8.8962 -1.4510 0 143 111
-0.9151 9.0524 -1.4510 0 143 111
-0.7588 9.0524 -1.4510 0 143 111
-2.6338 7.9587 0.8928 0 229 25
-2.4776 8.2712 0.8928 0 229 25
-0.4463 6.8649 -1.2947 0 148 106
-2.0088 9.5212 -1.1385 0 154 100
-2.1651 9.6774 -1.1385 0 154 100
-2.1651 9.8337 -1.1385 0 154 100
-2.3213 9.8337 -0.9822 0 160 94
-1.8526 9.6774 -1.1385 0 154 100
-1.8526 9.8337 -1.1385 0 154 100
-2.7901 10.1462 -0.9822 0 160 94
-2.4776 9.9899 -0.9822 0 160 94
-2.6338 10.1462 -0.9822 0 160 94
-2.9463 10.4587 -0.9822 0 160 94
-1.8526 10.1462 -1.2947 0 148 106
-2.1651 10.1462 -1.1385 0 154 100
-2.0088 9.9899 -1.1385 0 154 100
-2.3213 10.4587 -1.1385 0 154 100
-1.8526 10.3024 -1.1385 0 154 100
-2.0088 10.4587 -1.1385 0 154 100
-2.9463 9.3649 -0.6697 0 171 83
-2.6338 9.5212 -0.8260 0 166 88
-2.4776 9.5212 -0.8260 0 166 88
-2.7901 9.6774 -0.6697 0 171 83
-2.9463 9.8337 -0.6697 0 171 83
-2.3213 9.3649 -0.8260 0 166 88
-2.9463 9.9899 -0.6697 0 171 83
-1.2276 9.3649 -1.2947 0 148 106
-1.3838 9.5212 -1.2947 0 148 106
-1.5401 9.8337 -1.2947 0 148 106
-1.2276 9.6774 -1.4510 0 143 111
-1.2276 9.8337 -1.4510 0 143 111
-1.5401 9.3649 -1.1385 0 154 100
-1.6963 9.6774 -1.1385 0 154 100
-1.0713 9.3649 -1.4510 0 143 111
-0.9151 9.3649 -1.4510 0 143 111
-1.0713 9.5212 -1.4510 0 143 111
-1.5401 9.9899 -1.2947 0 148 106
-1.6963 10.1462 -1.2947 0 148 106
-1.3838 9.9899 -1.4510 0 143 111
-1.3838 10.1462 -1.4510 0 143 111
-1.5401 10.3024 -1.4510 0 143 111
-1.6963 10.4587 -1.4510 0 143 111
-1.6963 10.4587 -1.2947 0 148 106
-2.7901 10.7712 -0.9822 0 160 94
-2.4776 10.6149 -0.9822 0 160 94
-2.6338 10.7712 -0.9822 0 160 94
-2.4776 11.0837 -1.1385 0 154 100
-1.8526 10.6149 -1.2947 0 148 106
-1.8526 10.9274 -1.2947 0 148 106
-2.0088 11.0837 -1.2947 0 148 106
-2.0088 10.7712 -1.1385 0 154 100
-2.1651 10.9274 -1.1385 0 154 100
-2.3213 11.0837 -1.1385 0 154 100
-2.6338 11.2399 -1.1385 0 154 100
-2.7901 11.7087 -1.1385 0 154 100
-2.1651 11.2399 -1.2947 0 148 106
-2.3213 11.3962 -1.2947 0 148 106
3.1474 6.8649 -3.6385 0 63 191
3.1474 7.0212 -3.6385 0 63 191
2.9912 6.8649 -3.4822 0 68 186
3.1474 7.1774 -3.6385 0 63 191
3.1474 7.3337 -3.6385 0 63 191
3.1474 7.6462 -3.6385 0 63 191
2.2099 6.8649 -3.3260 0 74 180
2.5224 6.8649 -3.3260 0 74 180
2.3662 7.0212 -3.3260 0 74 180
2.5224 7.0212 -3.3260 0 74 180
2.2099 7.3337 -3.3260 0 74 180
2.5224 7.1774 -3.3260 0 74 180
2.5224 7.3337 -3.3260 0 74 180
2.8349 7.0212 -3.3260 0 74 180
2.8349 7.1774 -3.3260 0 74 180
2.8349 7.3337 -3.3260 0 74 180
2.2099 7.4899 -3.3260 0 74 180
2.2099 7.6462 -3.3260 0 74 180
2.0537 7.6462 -3.1697 0 80 174
2.3662 7.6462 -3.3260 0 74 180
2.0537 7.8024 -3.1697 0 80 174
2.0537 7.9587 -3.1697 0 80 174
2.3662 7.8024 -3.3260 0 74 180
2.5224 7.8024 -3.3260 0 74 180
2.3662 7.9587 -3.3260 0 74 180
2.9912 7.4899 -3.3260 0 74 180
2.9912 7.6462 -3.3260 0 74 180
2.8349 7.8024 -3.3260 0 74 180
2.8349 7.9587 -3.3260 0 74 180
2.9912 7.8024 -3.3260 0 74 180
3.4599 6.8649 -3.7947 0 57 197
3.4599 6.8649 -3.6385 0 63 191
3.4599 7.0212 -3.6385 0 63 191
3.4599 7.1774 -3.6385 0 63 191
3.4599 7.3337 -3.6385 0 63 191
3.9287 7.0212 -3.9510 0 51 203
3.9287 7.0212 -3.7947 0 57 197
3.9287 7.1774 -3.7947 0 57 197
3.9287 7.3337 -3.7947 0 57 197
4.3974 7.1774 -3.9510 0 51 203
4.2412 7.3337 -3.9510 0 51 203
4.3974 7.3337 -3.9510 0 51 203
3.7724 7.8024 -3.7947 0 57 197
3.7724 7.9587 -3.7947 0 57 197
3.4599 7.4899 -3.6385 0 63 191
3.4599 7.6462 -3.6385 0 63 191
3.4599 7.8024 -3.6385 0 63 191
3.4599 7.9587 -3.6385 0 63 191
3.9287 7.4899 -3.7947 0 57 197
3.9287 7.6462 -3.7947 0 57 197
4.2412 7.4899 -3.9510 0 51 203
4.2412 7.6462 -3.9510 0 51 203
4.2412 7.8024 -3.9510 0 51 203
4.2412 7.9587 -3.9510 0 51 203
2.9912 9.2087 -3.4822 0 68 186
2.2099 8.2712 -3.1697 0 80 174
2.5224 8.1149 -3.3260 0 74 180
2.5224 8.2712 -3.3260 0 74 180
2.8349 8.1149 -3.3260 0 74 180
2.8349 8.2712 -3.3260 0 74 180
2.6787 8.4274 -3.3260 0 74 180
2.8349 8.4274 -3.3260 0 74 180
2.6787 8.5837 -3.3260 0 74 180
2.8349 8.5837 -3.3260 0 74 180
2.0537 8.7399 -3.1697 0 80 174
2.2099 8.8962 -3.1697 0 80 174
2.5224 9.0524 -3.3260 0 74 180
2.6787 8.7399 -3.3260 0 74 180
2.8349 8.7399 -3.3260 0 74 180
2.9912 8.7399 -3.3260 0 74 180
3.7724 8.1149 -3.7947 0 57 197
3.7724 8.2712 -3.7947 0 57 197
3.4599 8.1149 -3.6385 0 63 191
3.4599 8.2712 -3.6385 0 63 191
3.4599 8.4274 -3.6385 0 63 191
3.3037 8.5837 -3.6385 0 63 191
4.2412 8.1149 -3.9510 0 51 203
3.9287 8.4274 -3.7947 0 57 197
3.9287 8.5837 -3.7947 0 57 197
4.2412 8.5837 -3.9510 0 51 203
3.7724 9.2087 -3.7947 0 57 197
3.3037 8.7399 -3.6385 0 63 191
3.4599 8.7399 -3.6385 0 63 191
3.4599 9.0524 -3.6385 0 63 191
3.4599 9.2087 -3.6385 0 63 191
3.9287 8.7399 -3.7947 0 57 197
4.2412 8.7399 -3.9510 0 51 203
4.2412 8.8962 -3.9510 0 51 203
4.0849 9.2087 -3.9510 0 51 203
5.4912 6.8649 -2.2322 0 114 140
5.6474 7.0212 -2.2322 0 114 140
5.6474 7.1774 -2.2322 0 114 140
5.6474 7.3337 -2.2322 0 114 140
5.6474 7.4899 -2.2322 0 114 140
5.3349 6.8649 -2.0760 0 120 134
5.3349 7.0212 -2.0760 0 120 134
5.1787 6.8649 -1.9197 0 126 128
5.1787 7.0212 -1.9197 0 126 128
5.4912 7.1774 -2.0760 0 120 134
5.4912 7.3337 -2.0760 0 120 134
5.6474 7.3337 -1.9197 0 126 128
5.3349 6.8649 -1.6072 0 137 117
5.3349 7.0212 -1.6072 0 137 117
5.4912 6.8649 -1.7635 0 131 123
5.4912 7.0212 -1.7635 0 131 123
5.4912 7.1774 -1.7635 0 131 123
5.6474 7.1774 -1.7635 0 131 123
5.4912 7.3337 -1.7635 0 131 123
5.6474 7.3337 -1.7635 0 131 123
5.4912 7.1774 -1.6072 0 137 117
5.4912 7.3337 -1.6072 0 137 117
5.6474 7.4899 -1.9197 0 126 128
5.6474 7.4899 -1.7635 0 131 123
5.6474 7.6462 -1.7635 0 131 123
5.4912 7.4899 -1.6072 0 137 117
5.6474 7.6462 -1.6072 0 137 117
5.6474 7.8024 -1.7635 0 131 123
5.6474 7.8024 -1.6072 0 137 117
5.6474 7.9587 -1.6072 0 137 117
5.8037 6.8649 -2.2322 0 114 140
5.8037 7.0212 -2.2322 0 114 140
6.1162 6.8649 -2.3885 0 108 146
6.1162 7.0212 -2.3885 0 108 146
5.8037 7.1774 -2.2322 0 114 140
5.9599 7.1774 -2.2322 0 114 140
5.8037 7.3337 -2.2322 0 114 140
6.1162 7.1774 -2.3885 0 108 146
6.1162 7.3337 -2.3885 0 108 146
6.8974 6.8649 -2.5447 0 103 151
6.8974 7.1774 -2.5447 0 103 151
6.7412 7.3337 -2.5447 0 103 151
6.5849 6.8649 -2.3885 0 108 146
6.4287 7.0212 -2.3885 0 108 146
5.9599 7.4899 -2.2322 0 114 140
5.9599 7.6462 -2.2322 0 114 140
6.1162 7.4899 -2.3885 0 108 146
6.1162 7.6462 -2.3885 0 108 146
5.9599 7.8024 -2.2322 0 114 140
6.2724 7.8024 -2.3885 0 108 146
6.2724 7.9587 -2.3885 0 108 146
6.1162 7.8024 -2.2322 0 114 140
6.1162 7.9587 -2.2322 0 114 140
6.7412 7.6462 -2.5447 0 103 151
6.8974 7.8024 -2.5447 0 103 151
6.7412 7.9587 -2.5447 0 103 151
5.8037 7.4899 -2.0760 0 120 134
5.9599 7.6462 -2.0760 0 120 134
5.8037 7.6462 -1.9197 0 126 128
5.9599 7.8024 -2.0760 0 120 134
5.9599 7.9587 -2.0760 0 120 134
5.8037 7.8024 -1.9197 0 126 128
5.8037 7.9587 -1.9197 0 126 128
5.8037 7.8024 -1.7635 0 131 123
5.8037 7.9587 -1.7635 0 131 123
6.2724 8.1149 -2.3885 0 108 146
6.1162 8.1149 -2.2322 0 114 140
6.2724 8.1149 -2.2322 0 114 140
6.1162 8.2712 -2.2322 0 114 140
6.2724 8.2712 -2.2322 0 114 140
6.2724 8.4274 -2.2322 0 114 140
6.2724 8.5837 -2.2322 0 114 140
6.5849 8.1149 -2.5447 0 103 151
6.7412 8.1149 -2.5447 0 103 151
6.8974 8.2712 -2.5447 0 103 151
6.8974 8.4274 -2.5447 0 103 151
6.8974 8.5837 -2.5447 0 103 151
6.5849 8.2712 -2.3885 0 108 146
6.4287 8.1149 -2.2322 0 114 140
6.4287 8.2712 -2.2322 0 114 140
6.5849 8.4274 -2.3885 0 108 146
6.5849 8.5837 -2.3885 0 108 146
6.4287 8.4274 -2.2322 0 114 140
6.4287 8.5837 -2.2322 0 114 140
6.2724 8.7399 -2.2322 0 114 140
6.2724 8.8962 -2.2322 0 114 140
6.8974 9.0524 -2.5447 0 103 151
6.4287 8.7399 -2.2322 0 114 140
6.5849 8.8962 -2.2322 0 114 140
6.7412 8.7399 -2.3885 0 108 146
6.7412 8.8962 -2.3885 0 108 146
6.5849 9.0524 -2.3885 0 108 146
6.5849 9.2087 -2.3885 0 108 146
6.4287 9.0524 -2.2322 0 114 140
6.4287 9.2087 -2.2322 0 114 140
6.7412 9.0524 -2.3885 0 108 146
6.7412 9.2087 -2.3885 0 108 146
5.9599 8.1149 -2.0760 0 120 134
5.9599 8.1149 -1.9197 0 126 128
5.9599 8.2712 -1.9197 0 126 128
6.1162 8.2712 -2.0760 0 120 134
5.9599 8.4274 -1.9197 0 126 128
5.9599 8.5837 -1.9197 0 126 128
6.1162 8.4274 -2.0760 0 120 134
6.1162 8.5837 -2.0760 0 120 134
5.8037 8.1149 -1.7635 0 131 123
5.8037 8.2712 -1.7635 0 131 123
5.9599 8.2712 -1.7635 0 131 123
5.8037 8.1149 -1.6072 0 137 117
5.9599 8.4274 -1.7635 0 131 123
5.9599 8.5837 -1.7635 0 131 123
5.8037 8.4274 -1.6072 0 137 117
5.9599 8.5837 -1.6072 0 137 117
6.1162 8.7399 -2.0760 0 120 134
6.2724 8.8962 -2.0760 0 120 134
6.1162 8.7399 -1.9197 0 126 128
6.1162 8.8962 -1.9197 0 126 128
6.2724 9.0524 -2.0760 0 120 134
6.2724 9.2087 -2.0760 0 120 134
6.1162 9.0524 -1.9197 0 126 128
6.1162 9.2087 -1.9197 0 126 128
5.9599 8.7399 -1.7635 0 131 123
5.9599 8.8962 -1.7635 0 131 123
5.9599 8.7399 -1.6072 0 137 117
6.2724 9.0524 -1.6072 0 137 117
6.4287 9.2087 -1.9197 0 126 128
6.4287 9.2087 -1.7635 0 131 123
2.9912 9.3649 -3.4822 0 68 186
2.9912 9.5212 -3.4822 0 68 186
2.9912 9.6774 -3.4822 0 68 186
2.6787 10.1462 -3.4822 0 68 186
2.9912 9.9899 -3.4822 0 68 186
2.9912 10.1462 -3.4822 0 68 186
3.1474 10.1462 -3.4822 0 68 186
2.9912 10.3024 -3.4822 0 68 186
2.9912 10.4587 -3.4822 0 68 186
3.1474 10.4587 -3.4822 0 68 186
2.2099 10.3024 -3.3260 0 74 180
3.3037 9.5212 -3.7947 0 57 197
3.7724 9.3649 -3.7947 0 57 197
3.7724 9.6774 -3.7947 0 57 197
3.4599 9.3649 -3.6385 0 63 191
3.4599 9.5212 -3.6385 0 63 191
3.4599 9.6774 -3.6385 0 63 191
3.4599 9.8337 -3.6385 0 63 191
3.6162 9.8337 -3.6385 0 63 191
4.0849 9.3649 -3.9510 0 51 203
4.0849 9.5212 -3.9510 0 51 203
3.3037 9.9899 -3.7947 0 57 197
3.3037 10.1462 -3.7947 0 57 197
3.7724 9.9899 -3.7947 0 57 197
3.3037 10.3024 -3.7947 0 57 197
3.3037 10.4587 -3.7947 0 57 197
3.4599 10.1462 -3.6385 0 63 191
3.6162 9.9899 -3.6385 0 63 191
3.4599 10.3024 -3.6385 0 63 191
3.6162 10.3024 -3.6385 0 63 191
3.6162 10.4587 -3.6385 0 63 191
4.0849 10.1462 -3.9510 0 51 203
3.9287 10.1462 -3.7947 0 57 197
4.0849 10.3024 -3.9510 0 51 203
3.9287 10.3024 -3.7947 0 57 197
4.2412 10.4587 -3.9510 0 51 203
2.8349 10.7712 -3.4822 0 68 186
3.1474 10.6149 -3.4822 0 68 186
3.1474 10.7712 -3.4822 0 68 186
3.1474 10.9274 -3.4822 0 68 186
3.1474 11.0837 -3.4822 0 68 186
3.1474 11.2399 -3.4822 0 68 186
2.6787 11.5524 -3.6385 0 63 191
2.6787 11.7087 -3.6385 0 63 191
3.3037 10.6149 -3.7947 0 57 197
3.3037 10.7712 -3.7947 0 57 197
3.3037 10.9274 -3.7947 0 57 197
3.6162 10.6149 -3.6385 0 63 191
3.4599 10.9274 -3.6385 0 63 191
3.6162 10.9274 -3.6385 0 63 191
4.0849 10.7712 -3.9510 0 51 203
3.9287 10.6149 -3.7947 0 57 197
3.9287 10.7712 -3.7947 0 57 197
4.2412 10.6149 -3.9510 0 51 203
4.0849 10.9274 -3.9510 0 51 203
3.9287 10.9274 -3.7947 0 57 197
3.9287 11.0837 -3.7947 0 57 197
3.4599 11.2399 -3.7947 0 57 197
3.6162 11.5524 -3.7947 0 57 197
3.9287 11.2399 -3.7947 0 57 197
3.9287 11.3962 -3.7947 0 57 197
4.2412 11.2399 -3.9510 0 51 203
4.2412 11.3962 -3.9510 0 51 203
3.9287 11.5524 -3.7947 0 57 197
3.9287 11.7087 -3.7947 0 57 197
4.2412 11.7087 -3.9510 0 51 203
6.5849 9.3649 -2.3885 0 108 146
6.5849 9.5212 -2.3885 0 108 146
6.4287 9.3649 -2.2322 0 114 140
6.4287 9.5212 -2.2322 0 114 140
6.7412 9.3649 -2.3885 0 108 146
6.7412 9.5212 -2.3885 0 108 146
6.8974 9.5212 -2.3885 0 108 146
6.7412 9.6774 -2.3885 0 108 146
6.8974 9.6774 -2.3885 0 108 146
6.8974 9.8337 -2.3885 0 108 146
6.8974 9.8337 -2.2322 0 114 140
6.8974 9.9899 -2.3885 0 108 146
6.2724 9.3649 -2.0760 0 120 134
6.4287 9.3649 -1.9197 0 126 128
6.5849 9.3649 -1.9197 0 126 128
6.5849 9.5212 -1.9197 0 126 128
6.5849 9.6774 -1.9197 0 126 128
6.5849 9.8337 -1.9197 0 126 128
6.7412 9.6774 -2.0760 0 120 134
6.8974 9.8337 -2.0760 0 120 134
6.7412 9.6774 -1.9197 0 126 128
6.7412 9.8337 -1.9197 0 126 128
6.4287 9.3649 -1.7635 0 131 123
6.4287 9.5212 -1.7635 0 131 123
6.4287 9.8337 -1.7635 0 131 123
6.5849 9.9899 -1.9197 0 126 128
6.8974 9.9899 -2.0760 0 120 134
6.7412 9.9899 -1.9197 0 126 128
6.7412 10.1462 -1.9197 0 126 128
6.5849 10.3024 -1.9197 0 126 128
6.8974 10.3024 -2.0760 0 120 134
6.8974 10.4587 -2.0760 0 120 134
6.7412 10.3024 -1.9197 0 126 128
6.7412 10.4587 -1.9197 0 126 128
6.8974 10.4587 -1.9197 0 126 128
6.4287 9.9899 -1.6072 0 137 117
6.5849 10.1462 -1.6072 0 137 117
6.5849 10.4587 -1.6072 0 137 117
6.7412 10.6149 -1.9197 0 126 128
6.8974 10.6149 -1.9197 0 126 128
6.7412 10.7712 -1.9197 0 126 128
6.8974 10.7712 -1.9197 0 126 128
6.5849 10.6149 -1.6072 0 137 117
6.8974 10.9274 -1.6072 0 137 117
5.3349 6.8649 -1.4510 0 143 111
5.3349 7.0212 -1.4510 0 143 111
5.1787 6.8649 -1.2947 0 148 106
5.1787 7.0212 -1.2947 0 148 106
5.3349 7.0212 -1.2947 0 148 106
5.3349 7.3337 -1.4510 0 143 111
5.3349 7.1774 -1.2947 0 148 106
5.3349 7.3337 -1.2947 0 148 106
5.4912 7.1774 -1.4510 0 143 111
5.1787 6.8649 -1.1385 0 154 100
5.1787 7.0212 -1.1385 0 154 100
5.1787 6.8649 -0.9822 0 160 94
5.3349 7.3337 -1.1385 0 154 100
5.3349 7.1774 -0.9822 0 160 94
5.3349 7.3337 -0.9822 0 160 94
5.3349 7.4899 -1.2947 0 148 106
5.3349 7.6462 -1.2947 0 148 106
5.4912 7.4899 -1.4510 0 143 111
5.4912 7.6462 -1.4510 0 143 111
5.4912 7.6462 -1.2947 0 148 106
5.4912 7.8024 -1.4510 0 143 111
5.6474 7.8024 -1.4510 0 143 111
5.6474 7.9587 -1.4510 0 143 111
5.4912 7.8024 -1.2947 0 148 106
5.4912 7.9587 -1.2947 0 148 106
5.3349 7.4899 -1.1385 0 154 100
5.3349 7.6462 -1.1385 0 154 100
5.3349 7.6462 -0.9822 0 160 94
5.4912 7.9587 -1.1385 0 154 100
5.4912 7.8024 -0.9822 0 160 94
5.3349 6.8649 -0.8260 0 166 88
5.3349 7.0212 -0.8260 0 166 88
5.3349 6.8649 -0.6697 0 171 83
5.3349 7.0212 -0.6697 0 171 83
5.3349 7.1774 -0.8260 0 166 88
5.3349 7.3337 -0.8260 0 166 88
5.4912 7.3337 -0.8260 0 166 88
5.4912 7.3337 -0.6697 0 171 83
5.3349 7.0212 -0.5135 0 177 77
5.3349 7.0212 -0.3572 0 183 71
5.3349 7.1774 -0.5135 0 177 77
5.3349 7.1774 -0.3572 0 183 71
5.4912 7.3337 -0.5135 0 177 77
5.4912 7.4899 -0.8260 0 166 88
5.4912 7.6462 -0.8260 0 166 88
5.4912 7.4899 -0.6697 0 171 83
5.3349 7.4899 -0.3572 0 183 71
5.4912 7.4899 -0.5135 0 177 77
5.4912 8.1149 -1.4510 0 143 111
5.6474 8.1149 -1.4510 0 143 111
5.6474 8.2712 -1.4510 0 143 111
5.4912 8.1149 -1.2947 0 148 106
5.4912 8.2712 -1.2947 0 148 106
5.6474 8.4274 -1.4510 0 143 111
5.8037 8.4274 -1.4510 0 143 111
5.8037 8.5837 -1.4510 0 143 111
5.9599 8.5837 -1.2947 0 148 106
5.8037 8.2712 -1.1385 0 154 100
5.8037 8.4274 -1.1385 0 154 100
5.8037 8.5837 -1.1385 0 154 100
5.8037 8.5837 -0.9822 0 160 94
5.9599 8.7399 -1.4510 0 143 111
5.9599 8.8962 -1.2947 0 148 106
6.1162 8.8962 -1.4510 0 143 111
5.9599 9.0524 -1.2947 0 148 106
5.9599 9.2087 -1.2947 0 148 106
6.1162 9.0524 -1.4510 0 143 111
6.2724 9.2087 -1.4510 0 143 111
5.9599 8.8962 -1.1385 0 154 100
5.8037 8.7399 -0.9822 0 160 94
5.9599 9.0524 -1.1385 0 154 100
5.9599 9.0524 -0.9822 0 160 94
5.9599 9.2087 -0.9822 0 160 94
5.9599 8.1149 -0.8260 0 166 88
5.8037 8.2712 -0.8260 0 166 88
5.8037 8.1149 -0.6697 0 171 83
5.8037 8.2712 -0.6697 0 171 83
5.8037 8.4274 -0.8260 0 166 88
5.9599 8.4274 -0.8260 0 166 88
5.9599 8.4274 -0.6697 0 171 83
5.8037 8.5837 -0.6697 0 171 83
5.9599 8.5837 -0.6697 0 171 83
5.8037 8.1149 -0.5135 0 177 77
5.8037 8.2712 -0.5135 0 177 77
5.8037 8.1149 -0.3572 0 183 71
5.8037 8.2712 -0.3572 0 183 71
5.8037 8.4274 -0.5135 0 177 77
5.8037 8.5837 -0.5135 0 177 77
5.8037 8.4274 -0.3572 0 183 71
5.8037 8.5837 -0.3572 0 183 71
5.9599 8.7399 -0.8260 0 166 88
5.9599 8.8962 -0.8260 0 166 88
5.8037 8.8962 -0.6697 0 171 83
5.9599 8.8962 -0.6697 0 171 83
5.9599 9.2087 -0.8260 0 166 88
5.8037 9.0524 -0.6697 0 171 83
5.9599 9.0524 -0.6697 0 171 83
5.8037 8.8962 -0.5135 0 177 77
5.8037 8.7399 -0.3572 0 183 71
5.8037 8.8962 -0.3572 0 183 71
5.8037 9.2087 -0.5135 0 177 77
5.8037 9.0524 -0.3572 0 183 71
5.8037 9.2087 -0.3572 0 183 71
5.3349 7.0212 -0.2010 0 189 65
5.6474 7.0212 -0.2010 0 189 65
5.3349 7.3337 -0.2010 0 189 65
5.4912 7.3337 -0.2010 0 189 65
5.6474 7.3337 -0.2010 0 189 65
5.3349 7.4899 -0.2010 0 189 65
5.3349 7.6462 -0.2010 0 189 65
5.6474 7.6462 -0.2010 0 189 65
5.6474 7.9587 -0.0447 0 194 60
5.8037 6.8649 -0.0447 0 194 60
5.8037 7.1774 -0.0447 0 194 60
5.8037 7.3337 -0.0447 0 194 60
6.1162 7.0212 0.1115 0 200 54
6.2724 7.0212 0.1115 0 200 54
6.1162 7.3337 0.1115 0 200 54
6.4287 7.0212 0.1115 0 200 54
6.7412 7.1774 0.1115 0 200 54
5.8037 7.6462 -0.0447 0 194 60
5.9599 7.9587 -0.0447 0 194 60
5.9599 7.6462 0.1115 0 200 54
6.2724 7.4899 0.1115 0 200 54
5.9599 7.9587 0.1115 0 200 54
6.2724 7.9587 0.1115 0 200 54
6.5849 7.6462 0.1115 0 200 54
6.7412 7.6462 0.2678 0 206 48
6.4287 7.9587 0.2678 0 206 48
5.8037 8.2712 -0.2010 0 189 65
5.8037 8.5837 -0.2010 0 189 65
5.8037 8.4274 -0.0447 0 194 60
6.2724 8.2712 0.2678 0 206 48
5.9599 8.4274 0.1115 0 200 54
6.5849 8.1149 0.1115 0 200 54
6.4287 8.4274 0.2678 0 206 48
6.7412 8.5837 0.2678 0 206 48
5.8037 8.8962 -0.2010 0 189 65
6.2724 8.8962 -0.2010 0 189 65
5.8037 9.0524 -0.2010 0 189 65
5.8037 9.2087 -0.2010 0 189 65
5.9599 8.7399 0.1115 0 200 54
6.2724 8.8962 0.2678 0 206 48
6.5849 8.8962 0.2678 0 206 48
5.9599 9.5212 -1.2947 0 148 106
6.1162 9.3649 -1.4510 0 143 111
6.2724 9.3649 -1.4510 0 143 111
6.1162 9.5212 -1.4510 0 143 111
6.2724 9.5212 -1.4510 0 143 111
6.1162 9.8337 -1.4510 0 143 111
6.2724 9.8337 -1.4510 0 143 111
6.1162 9.6774 -1.2947 0 148 106
5.9599 9.3649 -1.1385 0 154 100
5.9599 9.5212 -1.1385 0 154 100
5.9599 9.5212 -0.9822 0 160 94
5.9599 9.8337 -1.1385 0 154 100
5.9599 9.6774 -0.9822 0 160 94
6.4287 9.6774 -1.4510 0 143 111
6.4287 9.8337 -1.4510 0 143 111
6.2724 9.9899 -1.4510 0 143 111
6.2724 10.1462 -1.4510 0 143 111
6.1162 9.9899 -1.2947 0 148 106
6.1162 10.1462 -1.2947 0 148 106
6.2724 10.4587 -1.4510 0 143 111
5.9599 9.9899 -1.1385 0 154 100
5.9599 9.9899 -0.9822 0 160 94
6.4287 10.1462 -1.4510 0 143 111
6.4287 10.3024 -1.4510 0 143 111
6.4287 10.4587 -1.4510 0 143 111
5.9599 9.3649 -0.8260 0 166 88
5.9599 9.5212 -0.8260 0 166 88
5.8037 9.3649 -0.6697 0 171 83
5.9599 9.3649 -0.6697 0 171 83
5.9599 9.6774 -0.8260 0 166 88
5.8037 9.6774 -0.6697 0 171 83
5.9599 9.6774 -0.6697 0 171 83
5.9599 9.8337 -0.6697 0 171 83
5.8037 9.3649 -0.5135 0 177 77
5.8037 9.3649 -0.3572 0 183 71
5.8037 9.5212 -0.3572 0 183 71
5.8037 9.6774 -0.5135 0 177 77
5.8037 9.8337 -0.3572 0 183 71
5.9599 9.9899 -0.8260 0 166 88
5.8037 9.9899 -0.6697 0 171 83
6.2724 10.4587 -0.8260 0 166 88
5.8037 9.9899 -0.3572 0 183 71
5.8037 10.1462 -0.3572 0 183 71
6.2724 10.6149 -0.9822 0 160 94
6.2724 10.7712 -0.9822 0 160 94
6.2724 11.0837 -0.9822 0 160 94
6.5849 10.7712 -1.4510 0 143 111
6.4287 10.7712 -1.2947 0 148 106
6.5849 10.9274 -1.4510 0 143 111
6.4287 10.9274 -1.2947 0 148 106
6.7412 10.9274 -1.4510 0 143 111
6.7412 11.0837 -1.4510 0 143 111
6.4287 10.6149 -1.1385 0 154 100
6.4287 10.7712 -1.1385 0 154 100
6.4287 11.0837 -1.1385 0 154 100
6.2724 11.2399 -0.9822 0 160 94
6.2724 11.3962 -0.9822 0 160 94
6.5849 11.2399 -1.4510 0 143 111
6.4287 11.2399 -1.2947 0 148 106
6.4287 11.3962 -1.2947 0 148 106
6.5849 11.3962 -1.2947 0 148 106
6.8974 11.2399 -1.4510 0 143 111
6.7412 11.3962 -1.4510 0 143 111
6.8974 11.3962 -1.4510 0 143 111
6.7412 11.5524 -1.4510 0 143 111
6.8974 11.7087 -1.4510 0 143 111
6.4287 11.7087 -0.9822 0 160 94
6.2724 10.7712 -0.8260 0 166 88
6.2724 10.6149 -0.6697 0 171 83
6.2724 10.7712 -0.6697 0 171 83
6.2724 11.0837 -0.8260 0 166 88
6.1162 10.9274 -0.6697 0 171 83
6.2724 11.0837 -0.6697 0 171 83
6.1162 10.7712 -0.5135 0 177 77
6.1162 10.9274 -0.5135 0 177 77
6.1162 10.9274 -0.3572 0 183 71
6.2724 11.3962 -0.8260 0 166 88
6.1162 11.2399 -0.6697 0 171 83
6.2724 11.3962 -0.6697 0 171 83
6.1162 11.3962 -0.5135 0 177 77
6.1162 11.2399 -0.3572 0 183 71
6.1162 11.3962 -0.3572 0 183 71
6.1162 11.5524 -0.3572 0 183 71
6.1162 11.7087 -0.3572 0 183 71
6.4287 11.7087 -0.8260 0 166 88
5.8037 9.3649 -0.2010 0 189 65
5.8037 9.5212 -0.2010 0 189 65
6.1162 9.3649 -0.2010 0 189 65
5.8037 9.6774 -0.2010 0 189 65
5.8037 9.8337 -0.2010 0 189 65
5.8037 9.6774 -0.0447 0 194 60
6.2724 9.8337 -0.0447 0 194 60
6.2724 9.3649 0.2678 0 206 48
6.4287 9.5212 -0.0447 0 194 60
6.8974 9.5212 0.2678 0 206 48
6.7412 9.8337 0.2678 0 206 48
5.8037 9.9899 -0.2010 0 189 65
5.8037 10.1462 -0.2010 0 189 65
5.8037 9.9899 -0.0447 0 194 60
5.8037 10.3024 -0.2010 0 189 65
5.8037 10.4587 -0.2010 0 189 65
5.8037 10.4587 -0.0447 0 194 60
5.9599 10.4587 -0.0447 0 194 60
6.2724 10.3024 -0.0447 0 194 60
6.4287 9.9899 -0.0447 0 194 60
6.5849 10.4587 -0.0447 0 194 60
6.7412 10.1462 0.1115 0 200 54
6.8974 10.4587 0.2678 0 206 48
5.8037 10.7712 -0.0447 0 194 60
6.2724 10.6149 -0.0447 0 194 60
5.9599 10.9274 -0.0447 0 194 60
6.1162 11.0837 -0.2010 0 189 65
6.7412 10.7712 0.1115 0 200 54
5.9599 11.3962 -0.0447 0 194 60
6.1162 11.3962 -0.2010 0 189 65
6.2724 11.3962 -0.2010 0 189 65
6.4287 11.2399 -0.0447 0 194 60
6.7412 11.2399 -0.0447 0 194 60
6.4287 11.7087 -0.0447 0 194 60
6.8974 11.7087 -0.0447 0 194 60
9.3974 2.9587 -2.5447 0 103 151
7.2099 3.2712 -2.3885 0 108 146
7.2099 3.4274 -2.3885 0 108 146
7.0537 3.5837 -2.3885 0 108 146
7.8349 3.2712 -2.5447 0 103 151
7.6787 3.4274 -2.5447 0 103 151
7.6787 3.5837 -2.5447 0 103 151
7.5224 3.7399 -2.5447 0 103 151
7.5224 3.8962 -2.5447 0 103 151
7.3662 4.0524 -2.5447 0 103 151
7.0537 3.7399 -2.3885 0 108 146
7.9912 4.2087 -2.5447 0 103 151
8.7724 3.1149 -2.5447 0 103 151
8.6162 3.2712 -2.5447 0 103 151
8.4599 3.5837 -2.5447 0 103 151
9.2412 3.2712 -2.5447 0 103 151
9.0849 3.4274 -2.5447 0 103 151
8.3037 3.7399 -2.5447 0 103 151
8.7724 3.8962 -2.5447 0 103 151
8.7724 4.2087 -2.5447 0 103 151
8.9287 3.7399 -2.5447 0 103 151
11.8974 2.8024 -2.8572 0 91 163
10.1787 4.0524 -2.8572 0 91 163
11.5849 3.1149 -2.8572 0 91 163
11.4287 3.4274 -2.8572 0 91 163
11.2724 3.7399 -2.8572 0 91 163
11.1162 4.0524 -2.8572 0 91 163
11.8974 4.0524 -2.8572 0 91 163
10.4912 2.6462 -2.7010 0 97 157
10.1787 2.9587 -2.7010 0 97 157
11.2724 2.3337 -2.7010 0 97 157
11.1162 2.6462 -2.7010 0 97 157
10.8037 2.9587 -2.7010 0 97 157
10.0224 3.2712 -2.7010 0 97 157
9.8662 3.4274 -2.7010 0 97 157
10.6474 3.2712 -2.7010 0 97 157
10.4912 3.5837 -2.7010 0 97 157
9.7099 3.7399 -2.7010 0 97 157
9.7099 3.8962 -2.7010 0 97 157
9.5537 4.2087 -2.7010 0 97 157
10.3349 3.8962 -2.7010 0 97 157
9.0849 4.8337 -2.8572 0 91 163
9.2412 4.6774 -2.8572 0 91 163
8.7724 5.3024 -2.8572 0 91 163
8.6162 5.4587 -2.8572 0 91 163
8.9287 5.1462 -2.8572 0 91 163
9.2412 5.3024 -2.8572 0 91 163
8.6162 5.6149 -2.8572 0 91 163
9.0849 5.6149 -2.8572 0 91 163
9.0849 5.7712 -2.8572 0 91 163
9.3974 6.2399 -2.8572 0 91 163
9.2412 6.3962 -2.8572 0 91 163
9.2412 6.5524 -2.8572 0 91 163
7.3662 4.5212 -2.5447 0 103 151
7.2099 4.6774 -2.5447 0 103 151
7.8349 4.5212 -2.5447 0 103 151
7.9912 4.3649 -2.5447 0 103 151
7.8349 4.8337 -2.5447 0 103 151
7.5224 5.3024 -2.5447 0 103 151
7.3662 5.4587 -2.5447 0 103 151
7.6787 4.9899 -2.5447 0 103 151
8.1474 5.1462 -2.5447 0 103 151
7.8349 5.4587 -2.5447 0 103 151
7.9912 5.3024 -2.5447 0 103 151
7.9912 5.4587 -2.5447 0 103 151
8.4599 4.5212 -2.5447 0 103 151
8.6162 4.3649 -2.5447 0 103 151
8.3037 4.8337 -2.5447 0 103 151
9.3974 4.3649 -2.7010 0 97 157
8.3037 4.9899 -2.5447 0 103 151
7.2099 5.7712 -2.5447 0 103 151
7.0537 5.9274 -2.5447 0 103 151
7.5224 6.0837 -2.5447 0 103 151
7.8349 5.6149 -2.5447 0 103 151
7.6787 5.7712 -2.5447 0 103 151
7.6787 5.9274 -2.5447 0 103 151
8.1474 6.0837 -2.7010 0 97 157
7.0537 6.2399 -2.5447 0 103 151
7.0537 6.3962 -2.5447 0 103 151
7.5224 6.2399 -2.5447 0 103 151
7.5224 6.3962 -2.5447 0 103 151
7.0537 6.5524 -2.5447 0 103 151
8.1474 6.2399 -2.7010 0 97 157
7.9912 6.3962 -2.7010 0 97 157
7.8349 6.7087 -2.7010 0 97 157
7.9912 6.5524 -2.7010 0 97 157
8.3037 5.7712 -2.7010 0 97 157
10.0224 4.3649 -2.8572 0 91 163
9.8662 4.5212 -2.8572 0 91 163
10.6474 4.6774 -2.8572 0 91 163
9.7099 4.9899 -2.8572 0 91 163
10.3349 4.9899 -2.8572 0 91 163
10.1787 5.3024 -2.8572 0 91 163
10.1787 5.4587 -2.8572 0 91 163
10.4912 5.4587 -3.0135 0 85 169
10.8037 4.3649 -2.8572 0 91 163
11.5849 4.3649 -2.8572 0 91 163
11.4287 4.6774 -2.8572 0 91 163
10.9599 4.9899 -3.0135 0 85 169
11.8974 4.9899 -3.0135 0 85 169
11.7412 5.3024 -3.0135 0 85 169
9.5537 5.7712 -2.8572 0 91 163
10.3349 5.6149 -3.0135 0 85 169
10.4912 5.7712 -3.0135 0 85 169
10.6474 5.6149 -2.8572 0 91 163
10.4912 5.7712 -2.8572 0 91 163
10.3349 5.9274 -2.8572 0 91 163
10.6474 5.9274 -3.0135 0 85 169
10.0224 6.3962 -2.8572 0 91 163
10.0224 6.5524 -2.8572 0 91 163
9.8662 6.7087 -2.8572 0 91 163
10.1787 6.2399 -2.8572 0 91 163
10.6474 6.5524 -3.0135 0 85 169
10.8037 5.9274 -3.0135 0 85 169
10.8037 6.0837 -3.0135 0 85 169
10.9599 6.0837 -3.0135 0 85 169
11.1162 6.5524 -3.1697 0 80 174
10.8037 6.2399 -3.0135 0 85 169
10.8037 6.3962 -3.0135 0 85 169
10.9599 6.5524 -3.0135 0 85 169
11.5849 6.3962 -3.0135 0 85 169
11.5849 6.5524 -3.0135 0 85 169
7.0537 2.0212 0.1115 0 200 54
7.2099 2.0212 0.1115 0 200 54
7.0537 2.4899 0.1115 0 200 54
7.3662 2.6462 0.1115 0 200 54
7.0537 2.9587 0.1115 0 200 54
7.3662 3.1149 0.1115 0 200 54
7.2099 3.5837 0.2678 0 206 48
7.0537 4.2087 0.1115 0 200 54
7.2099 4.0524 0.2678 0 206 48
9.8662 3.5837 -0.3572 0 183 71
9.8662 3.7399 -0.3572 0 183 71
10.0224 3.7399 -0.3572 0 183 71
10.0224 4.2087 -0.5135 0 177 77
9.5537 2.6462 -0.2010 0 189 65
9.5537 3.1149 -0.2010 0 189 65
9.5537 3.2712 -0.2010 0 189 65
9.0849 4.9899 -0.5135 0 177 77
9.2412 5.4587 -0.5135 0 177 77
7.2099 4.8337 0.2678 0 206 48
7.0537 6.2399 0.1115 0 200 54
7.2099 6.7087 0.2678 0 206 48
10.0224 4.3649 -0.5135 0 177 77
10.1787 4.8337 -0.5135 0 177 77
10.3349 4.8337 -0.5135 0 177 77
10.3349 5.3024 -0.6697 0 171 83
10.4912 5.3024 -0.6697 0 171 83
9.5537 6.0837 -0.5135 0 177 77
10.6474 5.7712 -0.6697 0 171 83
10.6474 5.9274 -0.6697 0 171 83
9.8662 6.3962 -0.6697 0 171 83
9.7099 6.7087 -0.8260 0 166 88
10.8037 6.2399 -0.8260 0 166 88
10.9599 6.3962 -0.8260 0 166 88
12.3662 2.0212 -2.8572 0 91 163
13.1474 2.1774 -2.8572 0 91 163
12.0537 2.4899 -2.8572 0 91 163
12.5224 2.9587 -2.8572 0 91 163
12.8349 2.6462 -2.8572 0 91 163
14.0849 2.1774 -2.8572 0 91 163
13.7724 2.6462 -3.0135 0 85 169
12.3662 3.4274 -2.8572 0 91 163
13.1474 3.4274 -3.0135 0 85 169
12.0537 3.7399 -2.8572 0 91 163
12.8349 3.8962 -3.0135 0 85 169
12.6787 4.2087 -3.0135 0 85 169
13.4599 3.1149 -3.0135 0 85 169
14.2412 3.4274 -3.0135 0 85 169
13.4599 4.0524 -3.0135 0 85 169
15.4912 1.8649 -3.0135 0 85 169
15.0224 2.4899 -3.0135 0 85 169
14.5537 3.1149 -3.0135 0 85 169
12.2099 4.6774 -3.0135 0 85 169
12.9912 4.8337 -3.0135 0 85 169
12.5224 5.1462 -3.0135 0 85 169
13.1474 5.4587 -3.0135 0 85 169
13.3037 4.5212 -3.0135 0 85 169
13.7724 4.5212 -3.0135 0 85 169
13.6162 4.8337 -3.0135 0 85 169
13.4599 5.1462 -3.0135 0 85 169
8.1474 7.9587 -2.8572 0 91 163
8.6162 6.8649 -2.8572 0 91 163
8.7724 7.3337 -2.8572 0 91 163
9.0849 6.8649 -2.8572 0 91 163
8.9287 7.1774 -2.8572 0 91 163
8.3037 7.4899 -2.8572 0 91 163
8.7724 7.4899 -2.8572 0 91 163
8.6162 7.8024 -2.8572 0 91 163
8.1474 8.4274 -2.8572 0 91 163
7.9912 8.8962 -2.8572 0 91 163
7.9912 9.0524 -2.8572 0 91 163
8.4599 8.1149 -2.8572 0 91 163
8.4599 8.2712 -2.8572 0 91 163
8.4599 8.4274 -2.8572 0 91 163
8.4599 8.5837 -2.8572 0 91 163
9.0849 8.1149 -3.0135 0 85 169
9.0849 8.5837 -3.0135 0 85 169
8.3037 8.7399 -2.8572 0 91 163
8.4599 8.7399 -2.8572 0 91 163
8.3037 8.8962 -2.8572 0 91 163
8.3037 9.0524 -2.8572 0 91 163
8.3037 9.2087 -2.8572 0 91 163
8.7724 9.0524 -3.0135 0 85 169
8.7724 9.2087 -3.0135 0 85 169
8.9287 8.8962 -3.0135 0 85 169
9.3974 9.0524 -3.0135 0 85 169
9.2412 9.2087 -3.0135 0 85 169
9.3974 9.2087 -3.0135 0 85 169
7.5224 7.0212 -2.7010 0 97 157
7.8349 6.8649 -2.7010 0 97 157
7.8349 7.0212 -2.7010 0 97 157
7.8349 7.1774 -2.7010 0 97 157
7.8349 7.3337 -2.7010 0 97 157
7.2099 7.8024 -2.7010 0 97 157
7.8349 7.4899 -2.7010 0 97 157
7.6787 7.6462 -2.7010 0 97 157
7.6787 7.8024 -2.7010 0 97 157
7.6787 7.9587 -2.7010 0 97 157
7.2099 8.1149 -2.7010 0 97 157
7.2099 8.2712 -2.7010 0 97 157
7.5224 8.1149 -2.7010 0 97 157
7.5224 8.2712 -2.7010 0 97 157
7.2099 8.5837 -2.7010 0 97 157
7.5224 8.4274 -2.7010 0 97 157
7.5224 8.5837 -2.7010 0 97 157
7.6787 8.1149 -2.7010 0 97 157
7.2099 8.7399 -2.7010 0 97 157
7.5224 8.7399 -2.7010 0 97 157
7.5224 8.8962 -2.7010 0 97 157
7.2099 9.0524 -2.7010 0 97 157
7.2099 9.2087 -2.7010 0 97 157
7.6787 8.8962 -2.7010 0 97 157
7.6787 9.0524 -2.7010 0 97 157
7.8349 9.0524 -2.7010 0 97 157
7.6787 9.2087 -2.7010 0 97 157
7.8349 9.2087 -2.7010 0 97 157
9.8662 6.8649 -2.8572 0 91 163
9.7099 7.3337 -3.0135 0 85 169
10.4912 7.0212 -3.0135 0 85 169
10.3349 7.1774 -3.0135 0 85 169
10.3349 7.3337 -3.0135 0 85 169
9.5537 7.4899 -3.0135 0 85 169
10.0224 7.9587 -3.0135 0 85 169
10.1787 7.4899 -3.0135 0 85 169
10.1787 7.6462 -3.0135 0 85 169
10.1787 7.8024 -3.0135 0 85 169
11.1162 6.8649 -3.1697 0 80 174
11.1162 7.0212 -3.1697 0 80 174
11.2724 7.0212 -3.1697 0 80 174
11.1162 7.1774 -3.1697 0 80 174
11.2724 7.0212 -3.0135 0 85 169
11.4287 6.8649 -3.0135 0 85 169
10.9599 7.4899 -3.1697 0 80 174
10.9599 7.6462 -3.1697 0 80 174
10.8037 7.8024 -3.1697 0 80 174
10.8037 7.9587 -3.1697 0 80 174
11.8974 7.4899 -3.1697 0 80 174
11.5849 7.9587 -3.1697 0 80 174
11.7412 7.8024 -3.1697 0 80 174
9.7099 8.2712 -3.0135 0 85 169
9.7099 8.4274 -3.0135 0 85 169
9.5537 8.5837 -3.0135 0 85 169
10.6474 8.2712 -3.1697 0 80 174
10.4912 8.4274 -3.1697 0 80 174
10.4912 8.5837 -3.1697 0 80 174
10.0224 9.2087 -3.1697 0 80 174
9.5537 8.7399 -3.0135 0 85 169
9.5537 8.8962 -3.0135 0 85 169
10.3349 8.7399 -3.1697 0 80 174
10.3349 8.8962 -3.1697 0 80 174
10.1787 9.0524 -3.1697 0 80 174
11.2724 8.2712 -3.1697 0 80 174
11.2724 8.4274 -3.1697 0 80 174
11.2724 8.5837 -3.1697 0 80 174
11.1162 8.7399 -3.1697 0 80 174
11.1162 8.8962 -3.1697 0 80 174
10.8037 9.2087 -3.1697 0 80 174
11.1162 9.0524 -3.1697 0 80 174
8.3037 9.3649 -2.8572 0 91 163
8.3037 9.5212 -2.8572 0 91 163
8.7724 9.3649 -3.0135 0 85 169
8.6162 9.3649 -2.8572 0 91 163
8.6162 9.5212 -2.8572 0 91 163
8.3037 9.6774 -2.8572 0 91 163
8.3037 9.8337 -2.8572 0 91 163
8.4599 9.8337 -2.8572 0 91 163
8.6162 9.6774 -2.8572 0 91 163
9.2412 9.3649 -3.0135 0 85 169
9.2412 9.5212 -3.0135 0 85 169
9.0849 9.8337 -3.0135 0 85 169
9.2412 9.6774 -3.0135 0 85 169
8.3037 9.9899 -2.8572 0 91 163
8.3037 10.1462 -2.8572 0 91 163
8.4599 10.1462 -2.8572 0 91 163
8.6162 9.9899 -2.8572 0 91 163
8.6162 10.1462 -2.8572 0 91 163
8.3037 10.3024 -2.8572 0 91 163
8.3037 10.4587 -2.8572 0 91 163
8.6162 10.3024 -2.8572 0 91 163
8.6162 10.4587 -2.8572 0 91 163
9.0849 9.9899 -3.0135 0 85 169
9.0849 10.1462 -3.0135 0 85 169
9.0849 10.3024 -3.0135 0 85 169
8.9287 10.4587 -3.0135 0 85 169
8.3037 10.6149 -2.8572 0 91 163
8.4599 10.6149 -2.8572 0 91 163
8.3037 10.7712 -2.8572 0 91 163
8.6162 10.7712 -2.8572 0 91 163
8.4599 10.9274 -2.8572 0 91 163
8.7724 11.0837 -3.0135 0 85 169
8.6162 10.9274 -2.8572 0 91 163
8.9287 10.6149 -3.0135 0 85 169
8.9287 10.7712 -3.0135 0 85 169
9.3974 10.6149 -3.0135 0 85 169
9.3974 10.7712 -3.0135 0 85 169
8.9287 10.9274 -3.0135 0 85 169
8.9287 11.0837 -3.0135 0 85 169
9.2412 10.9274 -3.0135 0 85 169
9.2412 11.0837 -3.0135 0 85 169
8.7724 11.3962 -3.0135 0 85 169
8.7724 11.5524 -3.0135 0 85 169
8.7724 11.7087 -3.0135 0 85 169
8.9287 11.2399 -3.0135 0 85 169
8.9287 11.2399 -2.8572 0 91 163
9.0849 11.2399 -2.8572 0 91 163
8.9287 11.3962 -2.8572 0 91 163
9.2412 11.2399 -3.0135 0 85 169
9.2412 11.3962 -3.0135 0 85 169
9.3974 11.3962 -3.0135 0 85 169
8.9287 11.5524 -2.8572 0 91 163
8.9287 11.7087 -2.8572 0 91 163
9.3974 11.5524 -3.0135 0 85 169
9.3974 11.7087 -3.0135 0 85 169
7.2099 9.3649 -2.7010 0 97 157
7.3662 9.8337 -2.7010 0 97 157
7.6787 9.3649 -2.7010 0 97 157
7.8349 9.3649 -2.7010 0 97 157
7.6787 9.5212 -2.7010 0 97 157
7.8349 9.5212 -2.7010 0 97 157
7.9912 9.3649 -2.7010 0 97 157
7.6787 9.6774 -2.7010 0 97 157
7.6787 9.8337 -2.7010 0 97 157
7.8349 9.8337 -2.7010 0 97 157
7.9912 9.6774 -2.7010 0 97 157
7.2099 9.9899 -2.5447 0 103 151
7.2099 10.1462 -2.5447 0 103 151
7.3662 9.9899 -2.7010 0 97 157
7.3662 10.1462 -2.7010 0 97 157
7.3662 10.1462 -2.5447 0 103 151
7.3662 10.3024 -2.5447 0 103 151
7.5224 10.4587 -2.5447 0 103 151
7.2099 9.9899 -2.3885 0 108 146
7.2099 10.1462 -2.3885 0 108 146
7.0537 9.9899 -2.2322 0 114 140
7.0537 10.1462 -2.2322 0 114 140
7.2099 10.3024 -2.3885 0 108 146
7.0537 10.4587 -2.2322 0 114 140
7.6787 9.9899 -2.7010 0 97 157
7.8349 9.9899 -2.7010 0 97 157
7.6787 10.1462 -2.7010 0 97 157
7.8349 10.1462 -2.7010 0 97 157
7.9912 10.1462 -2.7010 0 97 157
7.6787 10.3024 -2.7010 0 97 157
7.6787 10.4587 -2.7010 0 97 157
7.8349 10.4587 -2.7010 0 97 157
7.6787 10.3024 -2.5447 0 103 151
7.6787 10.4587 -2.5447 0 103 151
7.9912 10.3024 -2.7010 0 97 157
7.5224 10.6149 -2.5447 0 103 151
7.5224 10.7712 -2.5447 0 103 151
7.5224 11.0837 -2.5447 0 103 151
7.2099 10.6149 -2.3885 0 108 146
7.0537 10.6149 -2.2322 0 114 140
7.2099 10.7712 -2.2322 0 114 140
7.3662 10.7712 -2.3885 0 108 146
7.2099 10.9274 -2.2322 0 114 140
7.2099 11.0837 -2.2322 0 114 140
7.3662 10.9274 -2.3885 0 108 146
7.3662 11.0837 -2.3885 0 108 146
7.8349 10.6149 -2.7010 0 97 157
7.6787 10.6149 -2.5447 0 103 151
7.6787 10.7712 -2.5447 0 103 151
7.9912 10.6149 -2.7010 0 97 157
8.1474 10.6149 -2.7010 0 97 157
7.9912 10.7712 -2.7010 0 97 157
7.8349 10.9274 -2.5447 0 103 151
7.8349 11.0837 -2.5447 0 103 151
7.9912 11.0837 -2.7010 0 97 157
7.5224 11.2399 -2.5447 0 103 151
7.5224 11.3962 -2.5447 0 103 151
7.3662 11.2399 -2.3885 0 108 146
7.8349 11.2399 -2.5447 0 103 151
7.8349 11.3962 -2.5447 0 103 151
7.9912 11.2399 -2.7010 0 97 157
7.9912 11.3962 -2.7010 0 97 157
7.9912 11.5524 -2.7010 0 97 157
7.9912 11.7087 -2.5447 0 103 151
7.6787 11.5524 -2.3885 0 108 146
7.8349 11.5524 -2.3885 0 108 146
7.6787 11.7087 -2.3885 0 108 146
7.0537 10.6149 -2.0760 0 120 134
7.0537 10.7712 -2.0760 0 120 134
7.0537 10.9274 -2.0760 0 120 134
7.2099 11.0837 -1.9197 0 126 128
7.0537 11.0837 -1.7635 0 131 123
7.2099 11.2399 -1.9197 0 126 128
7.2099 11.3962 -1.9197 0 126 128
7.5224 11.3962 -2.0760 0 120 134
7.3662 11.2399 -1.9197 0 126 128
7.3662 11.3962 -1.9197 0 126 128
7.2099 11.5524 -1.9197 0 126 128
7.2099 11.7087 -1.9197 0 126 128
7.5224 11.5524 -2.0760 0 120 134
7.3662 11.7087 -1.9197 0 126 128
7.0537 11.2399 -1.7635 0 131 123
7.0537 11.5524 -1.7635 0 131 123
7.0537 11.7087 -1.6072 0 137 117
8.3037 10.7712 -2.7010 0 97 157
8.3037 10.9274 -2.7010 0 97 157
8.4599 10.9274 -2.7010 0 97 157
8.3037 11.0837 -2.7010 0 97 157
8.4599 11.0837 -2.7010 0 97 157
8.3037 11.2399 -2.7010 0 97 157
8.4599 11.2399 -2.7010 0 97 157
8.3037 11.3962 -2.7010 0 97 157
8.4599 11.3962 -2.7010 0 97 157
8.3037 11.5524 -2.7010 0 97 157
8.4599 11.5524 -2.7010 0 97 157
8.3037 11.7087 -2.7010 0 97 157
8.4599 11.7087 -2.7010 0 97 157
9.8662 9.3649 -3.1697 0 80 174
9.8662 9.5212 -3.1697 0 80 174
9.8662 9.6774 -3.1697 0 80 174
9.8662 9.8337 -3.1697 0 80 174
9.7099 9.8337 -3.0135 0 85 169
10.6474 9.5212 -3.1697 0 80 174
10.3349 9.8337 -3.1697 0 80 174
10.6474 9.6774 -3.1697 0 80 174
10.4912 9.8337 -3.1697 0 80 174
9.7099 9.9899 -3.0135 0 85 169
9.5537 10.1462 -3.0135 0 85 169
9.5537 10.3024 -3.0135 0 85 169
9.5537 10.4587 -3.0135 0 85 169
10.3349 9.9899 -3.1697 0 80 174
10.3349 10.1462 -3.1697 0 80 174
10.1787 10.3024 -3.1697 0 80 174
10.1787 10.4587 -3.1697 0 80 174
10.8037 9.3649 -3.1697 0 80 174
10.9599 9.9899 -3.1697 0 80 174
10.9599 10.1462 -3.1697 0 80 174
10.9599 10.3024 -3.1697 0 80 174
10.8037 10.4587 -3.1697 0 80 174
10.0224 10.7712 -3.1697 0 80 174
10.0224 10.9274 -3.1697 0 80 174
9.8662 11.0837 -3.1697 0 80 174
10.1787 10.6149 -3.1697 0 80 174
10.6474 11.0837 -3.3260 0 74 180
10.6474 10.9274 -3.1697 0 80 174
9.7099 11.3962 -3.1697 0 80 174
9.8662 11.2399 -3.1697 0 80 174
9.7099 11.5524 -3.1697 0 80 174
9.7099 11.5524 -3.0135 0 85 169
9.7099 11.7087 -3.0135 0 85 169
10.4912 11.2399 -3.3260 0 74 180
10.4912 11.3962 -3.3260 0 74 180
10.3349 11.5524 -3.3260 0 74 180
10.3349 11.7087 -3.3260 0 74 180
10.3349 11.7087 -3.1697 0 80 174
10.8037 10.6149 -3.1697 0 80 174
10.8037 10.7712 -3.1697 0 80 174
7.0537 7.3337 0.1115 0 200 54
7.3662 7.4899 0.2678 0 206 48
7.2099 7.9587 0.1115 0 200 54
7.0537 8.4274 0.2678 0 206 48
7.3662 8.5837 0.2678 0 206 48
7.0537 9.0524 0.2678 0 206 48
10.0224 7.8024 -0.9822 0 160 94
10.6474 7.9587 -0.9822 0 160 94
10.0224 7.0212 -0.8260 0 166 88
9.8662 7.1774 -0.8260 0 166 88
10.1787 7.6462 -0.8260 0 166 88
11.1162 6.8649 -0.8260 0 166 88
11.2724 7.0212 -0.8260 0 166 88
10.3349 8.1149 -0.9822 0 160 94
10.1787 8.2712 -0.9822 0 160 94
10.6474 8.7399 -1.1385 0 154 100
10.4912 8.8962 -1.1385 0 154 100
10.4912 9.0524 -1.1385 0 154 100
10.8037 8.4274 -0.9822 0 160 94
10.8037 8.5837 -0.9822 0 160 94
11.1162 9.0524 -1.1385 0 154 100
7.2099 9.6774 0.2678 0 206 48
7.0537 10.1462 0.2678 0 206 48
7.5224 11.3962 0.1115 0 200 54
7.0537 11.5524 0.1115 0 200 54
7.6787 11.5524 0.2678 0 206 48
10.6474 9.5212 -1.2947 0 148 106
10.6474 9.3649 -1.1385 0 154 100
12.2099 7.0212 -3.1697 0 80 174
12.3662 6.8649 -3.1697 0 80 174
12.0537 7.3337 -3.1697 0 80 174
0.6474 12.1774 -4.1072 0 45 209
0.6474 12.3337 -4.1072 0 45 209
0.4912 12.4899 -4.1072 0 45 209
0.6474 12.4899 -4.1072 0 45 209
0.4912 12.6462 -4.1072 0 45 209
0.3349 12.8024 -4.1072 0 45 209
0.3349 12.9587 -4.1072 0 45 209
0.4912 12.8024 -4.1072 0 45 209
0.8037 11.8649 -4.1072 0 45 209
0.8037 12.0212 -4.1072 0 45 209
1.1162 12.3337 -4.1072 0 45 209
1.5849 11.8649 -4.1072 0 45 209
1.5849 12.0212 -4.1072 0 45 209
1.5849 12.1774 -4.1072 0 45 209
1.5849 12.3337 -4.1072 0 45 209
1.8974 12.3337 -4.2635 0 40 214
1.8974 12.1774 -4.1072 0 45 209
1.1162 12.6462 -4.1072 0 45 209
0.9599 12.8024 -4.1072 0 45 209
0.8037 12.9587 -4.1072 0 45 209
1.4287 12.4899 -4.1072 0 45 209
1.5849 12.4899 -4.1072 0 45 209
1.8974 12.4899 -4.2635 0 40 214
