ply
format ascii 1.0
comment OctoMap 3D export - Moose Robot
comment Resolution: 0.100 m
element vertex 1510
property float x
property float y
property float z
property uchar red
property uchar green
property uchar blue
end_header
-19.4242 7.7083 3.9558 46 208 0
-19.7367 7.8645 3.7995 41 213 0
-19.7367 8.0208 3.9558 46 208 0
-19.4242 8.0208 3.7995 41 213 0
-19.5804 8.0208 3.9558 46 208 0
-19.1117 7.5520 3.7995 41 213 0
-19.2679 7.7083 3.7995 41 213 0
-18.7992 7.7083 3.7995 41 213 0
-18.7992 7.7083 3.9558 46 208 0
-19.1117 7.8645 3.7995 41 213 0
-19.2679 8.0208 3.7995 41 213 0
-19.1117 7.8645 3.9558 46 208 0
-19.2679 8.0208 3.9558 46 208 0
-19.1117 8.0208 3.9558 46 208 0
-18.9554 7.8645 3.7995 41 213 0
-18.4867 7.0833 3.6433 35 219 0
-18.3304 6.9270 3.6433 35 219 0
-18.3304 7.0833 3.6433 35 219 0
-18.6429 7.0833 3.7995 41 213 0
-18.4867 7.0833 3.7995 41 213 0
-18.6429 7.2395 3.7995 41 213 0
-18.4867 7.5520 3.6433 35 219 0
-18.6429 7.5520 3.7995 41 213 0
-18.6429 7.7083 3.7995 41 213 0
-19.8929 5.8333 4.7370 74 180 0
-19.7367 5.9895 4.7370 74 180 0
-19.8929 5.9895 4.8933 79 175 0
-19.7367 6.1458 4.8933 79 175 0
-19.7367 6.3020 4.8933 79 175 0
-18.4867 7.0833 4.8933 79 175 0
-18.4867 7.2395 4.8933 79 175 0
-18.3304 7.2395 4.8933 79 175 0
-18.3304 7.3958 4.8933 79 175 0
-18.1742 7.5520 4.8933 79 175 0
-21.2992 8.6458 4.4245 63 191 0
-22.0804 8.8020 4.5808 68 186 0
-21.9242 8.8020 4.5808 68 186 0
-21.7679 8.8020 4.5808 68 186 0
-21.6117 8.8020 4.5808 68 186 0
-21.4554 8.8020 4.4245 63 191 0
-21.2992 8.8020 4.4245 63 191 0
-21.2992 8.9583 4.4245 63 191 0
-21.4554 8.8020 4.5808 68 186 0
-22.0804 8.8020 4.7370 74 180 0
-20.8304 8.6458 4.2683 57 197 0
-20.6742 8.6458 4.2683 57 197 0
-21.1429 8.6458 4.4245 63 191 0
-20.9867 8.6458 4.4245 63 191 0
-20.3617 8.3333 4.1120 52 202 0
-20.2054 8.3333 4.1120 52 202 0
-20.0492 8.3333 4.1120 52 202 0
-20.3617 8.6458 4.1120 52 202 0
-20.5179 8.6458 4.2683 57 197 0
-20.3617 8.6458 4.2683 57 197 0
-20.2054 8.6458 4.1120 52 202 0
-21.1429 8.9583 4.4245 63 191 0
-20.0492 10.3645 4.5808 68 186 0
-19.8929 8.3333 3.9558 46 208 0
-19.7367 8.3333 3.9558 46 208 0
-19.7367 8.6458 3.9558 46 208 0
-19.4242 8.4895 3.9558 46 208 0
-19.5804 8.6458 3.9558 46 208 0
-19.4242 8.6458 3.9558 46 208 0
-19.2679 8.3333 3.9558 46 208 0
-18.7992 8.1770 3.9558 46 208 0
-18.7992 8.3333 3.9558 46 208 0
-19.2679 8.4895 3.9558 46 208 0
-19.7367 9.1145 3.9558 46 208 0
-18.7992 8.8020 3.9558 46 208 0
-17.5492 8.9583 3.6433 35 219 0
-17.5492 9.2708 3.6433 35 219 0
-17.5492 8.8020 3.7995 41 213 0
-17.5492 8.8020 3.9558 46 208 0
-17.5492 8.9583 3.9558 46 208 0
-17.8617 9.2708 3.9558 46 208 0
-17.5492 9.1145 3.7995 41 213 0
-17.7054 9.2708 3.7995 41 213 0
-19.7367 9.4270 3.9558 46 208 0
-19.5804 10.2083 3.9558 46 208 0
-18.1742 9.5833 3.9558 46 208 0
-18.1742 9.8958 3.9558 46 208 0
-17.8617 9.5833 3.6433 35 219 0
-17.5492 9.4270 3.6433 35 219 0
-17.7054 9.5833 3.6433 35 219 0
-17.8617 9.5833 3.7995 41 213 0
-18.0179 9.5833 3.9558 46 208 0
-17.8617 9.5833 3.9558 46 208 0
-17.7054 9.5833 3.7995 41 213 0
-17.7054 9.5833 3.9558 46 208 0
-18.0179 9.7395 3.7995 41 213 0
-18.0179 9.8958 3.7995 41 213 0
-19.8929 8.3333 4.1120 52 202 0
-19.7367 8.6458 4.1120 52 202 0
-19.8929 8.8020 4.1120 52 202 0
-18.9554 8.9583 4.1120 52 202 0
-18.9554 9.2708 4.1120 52 202 0
-19.7367 10.3645 4.4245 63 191 0
-19.8929 10.3645 4.5808 68 186 0
-19.5804 10.3645 4.4245 63 191 0
-19.4242 10.3645 4.4245 63 191 0
-19.2679 10.0520 4.2683 57 197 0
-19.1117 10.0520 4.2683 57 197 0
-18.9554 10.0520 4.2683 57 197 0
-18.7992 10.0520 4.2683 57 197 0
-19.1117 10.3645 4.2683 57 197 0
-19.2679 10.3645 4.4245 63 191 0
-18.3304 9.5833 4.1120 52 202 0
-18.1742 9.5833 4.1120 52 202 0
-18.4867 9.8958 4.1120 52 202 0
-18.3304 9.8958 4.1120 52 202 0
-18.1742 9.8958 4.1120 52 202 0
-18.6429 10.0520 4.1120 52 202 0
-18.4867 10.0520 4.1120 52 202 0
-18.6429 10.0520 4.2683 57 197 0
-18.3304 10.5208 4.1120 52 202 0
-16.2992 0.6770 2.7058 2 252 0
-15.6742 0.6770 2.5495 0 252 2
-15.5179 0.6770 2.5495 0 252 2
-15.5179 0.8333 2.5495 0 252 2
-15.0492 0.6770 2.7058 2 252 0
-15.0492 0.8333 2.7058 2 252 0
-15.5179 0.9895 2.7058 2 252 0
-15.3617 0.9895 2.7058 2 252 0
-15.3617 1.1458 2.7058 2 252 0
-15.3617 1.3020 2.7058 2 252 0
-15.2054 1.3020 2.7058 2 252 0
-15.2054 1.4583 2.7058 2 252 0
-15.2054 1.6145 2.7058 2 252 0
-15.0492 1.6145 2.7058 2 252 0
-15.0492 1.7708 2.7058 2 252 0
-15.0492 1.9270 2.7058 2 252 0
-14.8929 0.9895 2.7058 2 252 0
-14.8929 1.1458 2.7058 2 252 0
-13.9554 0.6770 2.3933 0 246 8
-13.9554 0.8333 2.3933 0 246 8
-13.7992 0.9895 2.3933 0 246 8
-13.7992 1.1458 2.3933 0 246 8
-13.7992 1.3020 2.3933 0 246 8
-14.2679 1.3020 2.5495 0 252 2
-14.2679 1.4583 2.5495 0 252 2
-13.7992 1.4583 2.5495 0 252 2
-14.1117 1.6145 2.5495 0 252 2
-14.1117 1.7708 2.5495 0 252 2
-13.7992 1.6145 2.5495 0 252 2
-13.9554 1.7708 2.5495 0 252 2
-13.7992 1.7708 2.5495 0 252 2
-12.5492 0.6770 2.0808 0 235 19
-12.5492 0.8333 2.0808 0 235 19
-12.5492 0.9895 2.0808 0 235 19
-12.5492 1.1458 2.0808 0 235 19
-12.5492 1.3020 2.0808 0 235 19
-12.5492 1.4583 2.0808 0 235 19
-12.5492 1.6145 2.0808 0 235 19
-14.8929 1.9270 2.7058 2 252 0
-13.9554 1.9270 2.5495 0 252 2
-13.7992 1.9270 2.5495 0 252 2
-13.9554 2.0833 2.5495 0 252 2
-13.7992 2.0833 2.5495 0 252 2
-13.7992 2.2395 2.5495 0 252 2
-13.9554 2.3958 2.7058 2 252 0
-13.7992 2.3958 2.7058 2 252 0
-13.9554 2.5520 2.7058 2 252 0
-13.7992 2.7083 2.7058 2 252 0
-13.7992 2.8645 2.7058 2 252 0
-13.7992 3.0208 2.7058 2 252 0
-13.6429 2.2395 2.5495 0 252 2
-13.6429 2.3958 2.7058 2 252 0
-13.0179 2.0833 2.5495 0 252 2
-13.0179 2.2395 2.5495 0 252 2
-13.0179 2.3958 2.5495 0 252 2
-12.8617 2.3958 2.5495 0 252 2
-13.6429 2.5520 2.7058 2 252 0
-13.4867 2.7083 2.7058 2 252 0
-13.4867 2.8645 2.7058 2 252 0
-13.3304 3.0208 2.7058 2 252 0
-12.8617 2.5520 2.5495 0 252 2
-12.8617 2.7083 2.5495 0 252 2
-12.7054 2.7083 2.5495 0 252 2
-12.7054 2.8645 2.5495 0 252 2
-12.5492 2.8645 2.5495 0 252 2
-12.5492 3.0208 2.7058 2 252 0
-13.7992 3.1770 2.7058 2 252 0
-13.3304 3.1770 2.7058 2 252 0
-13.1742 3.3333 2.7058 2 252 0
-12.5492 3.1770 2.3933 0 246 8
-12.5492 3.3333 2.3933 0 246 8
-12.5492 3.1770 2.7058 2 252 0
-17.3929 0.8333 3.0183 13 241 0
-17.3929 0.9895 3.0183 13 241 0
-17.3929 1.1458 3.0183 13 241 0
-16.7679 0.6770 3.0183 13 241 0
-16.7679 0.8333 3.0183 13 241 0
-16.2992 0.8333 2.8620 8 246 0
-16.7679 0.9895 3.0183 13 241 0
-17.3929 1.3020 3.0183 13 241 0
-17.3929 1.4583 3.0183 13 241 0
-17.2367 1.6145 3.0183 13 241 0
-17.2367 1.7708 3.1745 19 235 0
-16.6117 1.3020 3.0183 13 241 0
-16.6117 1.4583 3.0183 13 241 0
-16.6117 1.6145 3.0183 13 241 0
-16.6117 1.7708 3.0183 13 241 0
-16.1429 0.9895 2.8620 8 246 0
-16.1429 1.1458 2.8620 8 246 0
-15.9867 1.3020 2.8620 8 246 0
-15.9867 1.4583 2.8620 8 246 0
-15.9867 1.6145 2.8620 8 246 0
-16.1429 1.6145 3.0183 13 241 0
-16.1429 1.7708 3.0183 13 241 0
-15.2054 1.3020 2.8620 8 246 0
-15.2054 1.4583 2.8620 8 246 0
-15.0492 1.6145 2.8620 8 246 0
-15.0492 1.7708 2.8620 8 246 0
-17.2367 1.9270 3.1745 19 235 0
-17.3929 2.0833 3.1745 19 235 0
-17.3929 2.3958 3.1745 19 235 0
-16.6117 1.9270 3.0183 13 241 0
-16.6117 2.0833 3.1745 19 235 0
-16.4554 2.0833 3.1745 19 235 0
-16.4554 2.2395 3.1745 19 235 0
-16.4554 2.3958 3.1745 19 235 0
-17.3929 2.5520 3.1745 19 235 0
-17.3929 2.7083 3.1745 19 235 0
-17.3929 2.8645 3.1745 19 235 0
-17.3929 3.0208 3.3308 24 230 0
-16.4554 2.5520 3.1745 19 235 0
-16.4554 2.7083 3.1745 19 235 0
-16.6117 2.8645 3.1745 19 235 0
-16.6117 2.8645 3.3308 24 230 0
-16.6117 3.0208 3.3308 24 230 0
-16.1429 1.9270 3.0183 13 241 0
-15.9867 2.0833 3.0183 13 241 0
-15.8304 2.2395 3.0183 13 241 0
-15.8304 2.3958 3.0183 13 241 0
-15.0492 1.9270 3.0183 13 241 0
-15.0492 2.0833 3.0183 13 241 0
-15.0492 2.2395 3.0183 13 241 0
-15.0492 2.3958 3.0183 13 241 0
-15.6742 2.5520 3.0183 13 241 0
-15.6742 2.7083 3.0183 13 241 0
-15.6742 2.8645 3.0183 13 241 0
-15.5179 3.0208 3.1745 19 235 0
-14.8929 1.3020 2.8620 8 246 0
-14.8929 2.0833 2.8620 8 246 0
-14.7367 2.2395 2.8620 8 246 0
-14.7367 2.3958 2.8620 8 246 0
-14.5804 2.5520 2.8620 8 246 0
-14.5804 2.7083 2.8620 8 246 0
-14.8929 2.8645 3.0183 13 241 0
-14.8929 3.0208 3.0183 13 241 0
-14.7367 3.0208 3.0183 13 241 0
-14.4242 2.8645 2.8620 8 246 0
-17.2367 3.1770 3.3308 24 230 0
-17.2367 3.3333 3.3308 24 230 0
-17.2367 3.4895 3.3308 24 230 0
-17.3929 3.6458 3.3308 24 230 0
-17.2367 3.6458 3.3308 24 230 0
-16.6117 3.1770 3.3308 24 230 0
-16.6117 3.3333 3.3308 24 230 0
-16.4554 3.4895 3.3308 24 230 0
-16.4554 3.6458 3.3308 24 230 0
-17.3929 3.9583 3.3308 24 230 0
-17.3929 4.1145 3.3308 24 230 0
-16.4554 3.8020 3.3308 24 230 0
-16.4554 3.9583 3.3308 24 230 0
-16.4554 4.1145 3.3308 24 230 0
-16.2992 4.2708 3.3308 24 230 0
-17.3929 4.2708 3.4870 30 224 0
-15.3617 3.1770 3.1745 19 235 0
-15.3617 3.3333 3.1745 19 235 0
-15.2054 3.4895 3.1745 19 235 0
-15.2054 3.6458 3.1745 19 235 0
-15.0492 3.6458 3.1745 19 235 0
-15.0492 3.8020 3.1745 19 235 0
-15.0492 3.9583 3.1745 19 235 0
-16.2992 4.4270 3.3308 24 230 0
-17.2367 4.4270 3.4870 30 224 0
-17.2367 4.7395 3.4870 30 224 0
-17.2367 4.8958 3.4870 30 224 0
-16.6117 4.4270 3.4870 30 224 0
-16.4554 4.5833 3.4870 30 224 0
-16.4554 4.7395 3.4870 30 224 0
-16.4554 4.8958 3.4870 30 224 0
-17.2367 5.0520 3.4870 30 224 0
-17.2367 5.3645 3.4870 30 224 0
-17.2367 5.5208 3.4870 30 224 0
-16.4554 5.2083 3.4870 30 224 0
-16.2992 5.3645 3.4870 30 224 0
-16.2992 5.5208 3.4870 30 224 0
-15.9867 4.8958 3.0183 13 241 0
-16.1429 5.0520 3.0183 13 241 0
-16.1429 5.2083 3.0183 13 241 0
-15.9867 5.2083 3.0183 13 241 0
-15.9867 5.3645 3.0183 13 241 0
-17.2367 5.2083 4.2683 57 197 0
-17.0804 5.2083 4.1120 52 202 0
-17.0804 5.3645 4.1120 52 202 0
-14.8929 3.1770 3.0183 13 241 0
-14.5804 3.1770 3.0183 13 241 0
-14.5804 3.3333 3.0183 13 241 0
-14.4242 3.4895 3.0183 13 241 0
-14.7367 3.4895 3.1745 19 235 0
-14.7367 3.6458 3.1745 19 235 0
-13.7992 3.1770 2.8620 8 246 0
-13.7992 3.3333 2.8620 8 246 0
-14.2679 3.6458 3.0183 13 241 0
-13.7992 3.4895 2.8620 8 246 0
-13.7992 3.6458 2.8620 8 246 0
-14.8929 3.8020 3.1745 19 235 0
-14.8929 3.9583 3.1745 19 235 0
-14.8929 4.1145 3.1745 19 235 0
-14.8929 4.2708 3.1745 19 235 0
-14.8929 4.2708 3.3308 24 230 0
-14.2679 3.8020 3.0183 13 241 0
-14.2679 3.9583 3.0183 13 241 0
-14.1117 3.9583 3.0183 13 241 0
-13.7992 3.8020 2.8620 8 246 0
-14.1117 4.1145 3.1745 19 235 0
-13.0179 3.4895 2.8620 8 246 0
-13.0179 3.6458 2.8620 8 246 0
-13.6429 3.8020 2.8620 8 246 0
-13.6429 3.9583 2.8620 8 246 0
-13.3304 3.8020 2.8620 8 246 0
-13.1742 3.8020 2.8620 8 246 0
-13.1742 3.9583 2.8620 8 246 0
-13.6429 4.1145 2.8620 8 246 0
-13.6429 4.2708 2.8620 8 246 0
-13.0179 4.1145 2.8620 8 246 0
-13.0179 4.2708 3.0183 13 241 0
-14.7367 4.4270 3.3308 24 230 0
-14.8929 4.5833 3.3308 24 230 0
-14.8929 4.7395 3.3308 24 230 0
-14.7367 4.7395 3.3308 24 230 0
-14.8929 4.8958 3.3308 24 230 0
-14.7367 4.8958 3.3308 24 230 0
-13.7992 4.7395 3.0183 13 241 0
-13.9554 4.4270 3.1745 19 235 0
-13.7992 4.5833 3.1745 19 235 0
-14.7367 5.0520 3.3308 24 230 0
-14.8929 5.2083 3.3308 24 230 0
-14.7367 5.2083 3.3308 24 230 0
-14.8929 5.3645 3.3308 24 230 0
-14.8929 5.5208 3.4870 30 224 0
-14.5804 5.5208 3.4870 30 224 0
-13.6429 4.4270 2.8620 8 246 0
-13.4867 4.5833 2.8620 8 246 0
-13.6429 4.8958 3.0183 13 241 0
-13.6429 4.8958 3.1745 19 235 0
-12.8617 4.5833 3.0183 13 241 0
-12.7054 4.5833 3.0183 13 241 0
-12.7054 4.7395 3.0183 13 241 0
-12.5492 4.8958 3.0183 13 241 0
-13.6429 5.0520 3.0183 13 241 0
-13.6429 5.2083 3.0183 13 241 0
-13.6429 5.3645 3.0183 13 241 0
-13.6429 5.5208 3.0183 13 241 0
-13.6429 5.0520 3.1745 19 235 0
-13.4867 5.0520 3.1745 19 235 0
-13.4867 5.2083 3.1745 19 235 0
-13.3304 5.3645 3.1745 19 235 0
-13.3304 5.5208 3.1745 19 235 0
-12.3929 1.7708 2.2370 0 241 13
-10.8304 1.4583 1.6120 0 219 35
-10.8304 1.6145 1.6120 0 219 35
-10.8304 1.7708 1.7683 0 224 30
-12.3929 1.9270 2.2370 0 241 13
-12.3929 2.0833 2.2370 0 241 13
-12.3929 2.2395 2.2370 0 241 13
-12.3929 2.3958 2.2370 0 241 13
-12.3929 2.5520 2.2370 0 241 13
-12.3929 2.7083 2.2370 0 241 13
-12.3929 2.8645 2.2370 0 241 13
-12.2367 2.8645 2.3933 0 246 8
-12.2367 3.0208 2.3933 0 246 8
-11.7679 2.8645 2.3933 0 246 8
-11.7679 2.8645 2.5495 0 252 2
-11.6117 3.0208 2.5495 0 252 2
-10.6742 1.9270 1.7683 0 224 30
-10.6742 2.0833 1.7683 0 224 30
-10.6742 2.2395 1.7683 0 224 30
-10.6742 2.3958 1.7683 0 224 30
-10.6742 2.5520 1.7683 0 224 30
-10.6742 2.7083 1.9245 0 230 24
-10.6742 2.8645 1.9245 0 230 24
-10.5179 3.0208 1.9245 0 230 24
-9.2679 1.9270 1.4558 0 213 41
-9.1117 2.0833 1.4558 0 213 41
-9.1117 2.2395 1.4558 0 213 41
-9.1117 2.3958 1.6120 0 219 35
-9.1117 2.5520 1.6120 0 219 35
-9.1117 2.7083 1.6120 0 219 35
-8.9554 2.8645 1.6120 0 219 35
-8.9554 3.0208 1.6120 0 219 35
-12.3929 3.3333 2.3933 0 246 8
-12.3929 3.1770 2.7058 2 252 0
-12.3929 3.4895 2.5495 0 252 2
-12.3929 3.6458 2.5495 0 252 2
-12.2367 3.4895 2.7058 2 252 0
-12.2367 3.6458 2.7058 2 252 0
-11.6117 3.1770 2.5495 0 252 2
-11.4554 3.3333 2.5495 0 252 2
-11.2992 3.4895 2.5495 0 252 2
-11.2992 3.6458 2.5495 0 252 2
-12.3929 3.8020 2.5495 0 252 2
-12.3929 3.9583 2.5495 0 252 2
-12.0804 3.8020 2.7058 2 252 0
-12.0804 3.9583 2.7058 2 252 0
-12.3929 4.1145 2.5495 0 252 2
-12.3929 4.2708 2.5495 0 252 2
-11.9242 4.1145 2.7058 2 252 0
-10.5179 3.1770 1.9245 0 230 24
-10.5179 3.3333 1.9245 0 230 24
-10.5179 3.4895 1.9245 0 230 24
-10.5179 3.6458 1.9245 0 230 24
-10.6742 3.9583 2.0808 0 235 19
-10.6742 4.1145 2.0808 0 235 19
-10.6742 4.2708 2.0808 0 235 19
-10.5179 3.8020 1.9245 0 230 24
-10.5179 4.2708 2.0808 0 235 19
-10.2054 3.1770 2.3933 0 246 8
-10.2054 3.3333 2.3933 0 246 8
-10.0492 3.4895 2.3933 0 246 8
-10.0492 3.6458 2.3933 0 246 8
-11.1429 3.9583 2.7058 2 252 0
-10.9867 4.1145 2.7058 2 252 0
-10.8304 4.2708 2.7058 2 252 0
-12.2367 4.4270 2.5495 0 252 2
-12.2367 4.5833 2.5495 0 252 2
-12.2367 4.7395 2.5495 0 252 2
-12.2367 4.8958 2.7058 2 252 0
-12.2367 5.0520 2.7058 2 252 0
-12.2367 5.2083 2.7058 2 252 0
-12.3929 5.3645 2.7058 2 252 0
-12.3929 5.5208 2.7058 2 252 0
-10.6742 4.4270 2.0808 0 235 19
-10.5179 4.4270 2.0808 0 235 19
-10.8304 4.4270 2.7058 2 252 0
-10.6742 4.5833 2.7058 2 252 0
-10.6742 4.7395 2.7058 2 252 0
-10.5179 4.5833 2.2370 0 241 13
-10.5179 4.7395 2.2370 0 241 13
-10.5179 4.8958 2.2370 0 241 13
-10.5179 4.7395 2.7058 2 252 0
-10.5179 5.0520 2.2370 0 241 13
-10.5179 5.2083 2.2370 0 241 13
-10.3617 5.3645 2.2370 0 241 13
-10.3617 5.5208 2.2370 0 241 13
-8.9554 3.1770 1.6120 0 219 35
-8.9554 3.3333 1.6120 0 219 35
-8.9554 3.4895 1.7683 0 224 30
-8.9554 3.6458 1.7683 0 224 30
-8.9554 3.8020 1.7683 0 224 30
-8.7992 3.8020 1.7683 0 224 30
-8.7992 3.9583 1.7683 0 224 30
-8.7992 4.1145 1.7683 0 224 30
-8.7992 4.2708 1.7683 0 224 30
-9.8929 3.6458 2.3933 0 246 8
-9.2679 3.3333 2.2370 0 241 13
-9.2679 3.4895 2.2370 0 241 13
-9.1117 3.6458 2.2370 0 241 13
-9.8929 3.8020 2.3933 0 246 8
-9.7367 3.9583 2.3933 0 246 8
-9.7367 4.1145 2.5495 0 252 2
-9.5804 4.2708 2.5495 0 252 2
-9.1117 3.8020 2.2370 0 241 13
-8.9554 3.9583 2.2370 0 241 13
-8.9554 3.9583 2.3933 0 246 8
-8.9554 4.1145 2.3933 0 246 8
-8.7992 4.2708 2.3933 0 246 8
-7.8617 3.6458 2.0808 0 235 19
-7.7054 3.6458 2.0808 0 235 19
-7.7054 3.8020 2.0808 0 235 19
-7.7054 3.9583 2.0808 0 235 19
-7.5492 3.9583 2.0808 0 235 19
-7.5492 4.1145 2.0808 0 235 19
-8.7992 4.4270 1.7683 0 224 30
-8.9554 4.5833 1.9245 0 230 24
-8.9554 4.7395 1.9245 0 230 24
-8.9554 4.8958 1.9245 0 230 24
-8.9554 5.0520 2.0808 0 235 19
-8.9554 5.2083 2.0808 0 235 19
-8.7992 5.2083 2.0808 0 235 19
-8.7992 5.3645 2.0808 0 235 19
-8.7992 5.5208 2.0808 0 235 19
-9.4242 4.5833 2.5495 0 252 2
-9.4242 4.7395 2.5495 0 252 2
-9.2679 4.7395 2.5495 0 252 2
-9.2679 4.8958 2.5495 0 252 2
-9.1117 5.0520 2.7058 2 252 0
-9.1117 5.2083 2.7058 2 252 0
-8.9554 5.3645 2.7058 2 252 0
-8.6429 4.4270 2.3933 0 246 8
-8.6429 4.5833 2.3933 0 246 8
-8.4867 4.7395 2.3933 0 246 8
-8.4867 4.8958 2.3933 0 246 8
-8.4867 4.8958 2.5495 0 252 2
-8.3304 5.2083 2.5495 0 252 2
-8.1742 5.2083 2.5495 0 252 2
-8.1742 5.3645 2.5495 0 252 2
-8.1742 5.5208 2.5495 0 252 2
-8.0179 5.5208 2.5495 0 252 2
-10.6742 0.6770 3.7995 41 213 0
-10.6742 0.8333 3.7995 41 213 0
-10.6742 0.9895 3.7995 41 213 0
-10.2054 0.6770 3.6433 35 219 0
-10.2054 0.8333 3.6433 35 219 0
-10.2054 0.9895 3.6433 35 219 0
-10.2054 1.1458 3.6433 35 219 0
-10.6742 1.3020 3.7995 41 213 0
-10.6742 1.4583 3.9558 46 208 0
-10.2054 1.3020 3.7995 41 213 0
-10.5179 1.6145 3.9558 46 208 0
-10.2054 1.6145 3.7995 41 213 0
-10.2054 1.7708 3.7995 41 213 0
-10.5179 1.9270 3.9558 46 208 0
-10.5179 2.0833 3.9558 46 208 0
-10.2054 1.9270 3.7995 41 213 0
-10.0492 2.0833 3.7995 41 213 0
-10.0492 2.3958 3.9558 46 208 0
-10.0492 2.5520 3.9558 46 208 0
-10.0492 2.7083 3.9558 46 208 0
-10.0492 2.8645 3.9558 46 208 0
-12.2367 0.6770 4.1120 52 202 0
-12.2367 0.9895 4.2683 57 197 0
-12.0804 1.1458 4.2683 57 197 0
-11.6117 0.8333 4.1120 52 202 0
-11.4554 0.9895 4.1120 52 202 0
-12.0804 1.4583 4.2683 57 197 0
-12.0804 1.7708 4.4245 63 191 0
-11.4554 1.3020 4.1120 52 202 0
-11.4554 1.7708 4.2683 57 197 0
-12.0804 1.9270 4.4245 63 191 0
-11.9242 2.2395 4.4245 63 191 0
-11.4554 1.9270 4.2683 57 197 0
-11.2992 2.2395 4.2683 57 197 0
-11.2992 2.3958 4.2683 57 197 0
-11.9242 2.5520 4.5808 68 186 0
-11.9242 2.7083 4.5808 68 186 0
-11.9242 3.0208 4.5808 68 186 0
-11.2992 2.7083 4.4245 63 191 0
-11.2992 3.0208 4.4245 63 191 0
-10.5179 2.2395 4.1120 52 202 0
-10.5179 2.5520 4.1120 52 202 0
-10.3617 2.7083 4.1120 52 202 0
-10.3617 3.0208 4.1120 52 202 0
-8.7992 0.6770 3.3308 24 230 0
-8.7992 0.8333 3.3308 24 230 0
-8.7992 0.9895 3.4870 30 224 0
-8.7992 1.1458 3.4870 30 224 0
-8.7992 1.3020 3.4870 30 224 0
-8.7992 1.4583 3.4870 30 224 0
-8.7992 1.6145 3.4870 30 224 0
-7.7054 0.6770 3.0183 13 241 0
-7.7054 0.8333 3.0183 13 241 0
-7.7054 0.9895 3.0183 13 241 0
-7.7054 1.1458 3.1745 19 235 0
-7.7054 1.3020 3.1745 19 235 0
-7.7054 1.6145 3.1745 19 235 0
-7.7054 1.7708 3.1745 19 235 0
-8.4867 0.8333 3.9558 46 208 0
-7.8617 0.6770 3.7995 41 213 0
-7.7054 0.8333 3.7995 41 213 0
-7.5492 0.9895 3.7995 41 213 0
-7.5492 1.1458 3.7995 41 213 0
-8.7992 1.9270 3.6433 35 219 0
-8.7992 2.0833 3.6433 35 219 0
-8.7992 2.2395 3.6433 35 219 0
-8.7992 2.3958 3.6433 35 219 0
-8.7992 2.5520 3.6433 35 219 0
-8.7992 2.7083 3.7995 41 213 0
-7.7054 1.9270 3.1745 19 235 0
-7.7054 2.0833 3.3308 24 230 0
-7.7054 2.2395 3.3308 24 230 0
-7.7054 2.3958 3.3308 24 230 0
-7.8617 2.7083 3.3308 24 230 0
-7.7054 2.5520 3.3308 24 230 0
-8.6429 2.8645 3.7995 41 213 0
-7.8617 2.8645 3.4870 30 224 0
-7.8617 3.0208 3.4870 30 224 0
-8.3304 0.9895 4.1120 52 202 0
-8.3304 1.1458 4.1120 52 202 0
-8.1742 1.4583 4.1120 52 202 0
-8.0179 1.6145 4.1120 52 202 0
-7.8617 1.7708 4.2683 57 197 0
-7.8617 2.0833 4.2683 57 197 0
-7.7054 2.2395 4.2683 57 197 0
-7.5492 2.5520 4.4245 63 191 0
-11.9242 4.1145 2.8620 8 246 0
-11.9242 4.2708 2.8620 8 246 0
-12.0804 4.5833 2.8620 8 246 0
-11.9242 4.5833 2.8620 8 246 0
-11.9242 4.7395 2.8620 8 246 0
-11.7679 4.4270 2.8620 8 246 0
-11.7679 4.8958 3.0183 13 241 0
-12.3929 5.2083 3.0183 13 241 0
-12.2367 5.3645 3.0183 13 241 0
-12.2367 5.5208 3.0183 13 241 0
-11.7679 5.0520 3.0183 13 241 0
-11.6117 5.2083 3.0183 13 241 0
-11.4554 5.3645 3.0183 13 241 0
-11.4554 5.5208 3.0183 13 241 0
-10.6742 5.2083 2.8620 8 246 0
-10.5179 5.0520 2.8620 8 246 0
-10.5179 5.3645 2.8620 8 246 0
-10.5179 5.5208 3.0183 13 241 0
-11.9242 3.3333 4.7370 74 180 0
-11.2992 3.9583 4.7370 74 180 0
-11.2992 4.2708 4.7370 74 180 0
-11.1429 3.1770 4.4245 63 191 0
-10.3617 3.1770 4.2683 57 197 0
-10.0492 3.1770 4.1120 52 202 0
-10.3617 3.4895 4.2683 57 197 0
-10.5179 4.2708 4.5808 68 186 0
-11.2992 4.5833 4.8933 79 175 0
-11.1429 4.8958 4.8933 79 175 0
-10.5179 4.5833 4.7370 74 180 0
-10.5179 4.8958 4.7370 74 180 0
-11.1429 5.2083 5.0495 84 170 0
-11.1429 5.5208 5.0495 84 170 0
-10.5179 5.0520 4.7370 74 180 0
-10.5179 5.3645 4.8933 79 175 0
-8.7992 3.3333 3.7995 41 213 0
-8.6429 3.1770 3.7995 41 213 0
-8.6429 3.4895 3.7995 41 213 0
-8.6429 3.6458 3.9558 46 208 0
-7.8617 3.3333 3.4870 30 224 0
-7.7054 3.4895 3.4870 30 224 0
-7.7054 3.6458 3.4870 30 224 0
-8.6429 3.8020 3.9558 46 208 0
-8.6429 4.1145 3.9558 46 208 0
-8.1742 4.2708 3.9558 46 208 0
-7.8617 3.8020 3.4870 30 224 0
-7.7054 3.9583 3.6433 35 219 0
-7.7054 4.1145 3.6433 35 219 0
-7.7054 4.2708 3.6433 35 219 0
-8.1742 4.5833 3.9558 46 208 0
-8.1742 4.7395 3.9558 46 208 0
-7.7054 4.4270 3.6433 35 219 0
-9.8929 3.3333 4.1120 52 202 0
-9.8929 3.4895 4.1120 52 202 0
-9.8929 3.6458 4.1120 52 202 0
-9.7367 3.9583 4.2683 57 197 0
-9.7367 4.1145 4.2683 57 197 0
-9.4242 4.1145 4.1120 52 202 0
-9.4242 4.2708 4.1120 52 202 0
-9.7367 4.4270 4.2683 57 197 0
-9.4242 4.5833 4.2683 57 197 0
-9.5804 4.5833 4.4245 63 191 0
-9.5804 4.8958 4.4245 63 191 0
-9.2679 4.7395 4.2683 57 197 0
-9.2679 4.8958 4.2683 57 197 0
-9.5804 5.2083 4.4245 63 191 0
-9.5804 5.3645 4.5808 68 186 0
-9.2679 5.2083 4.2683 57 197 0
-9.2679 5.3645 4.4245 63 191 0
-8.1742 4.8958 4.1120 52 202 0
-8.1742 5.0520 4.1120 52 202 0
-8.0179 5.3645 4.1120 52 202 0
-8.0179 5.5208 4.1120 52 202 0
-14.1117 5.8333 2.7058 2 252 0
-14.1117 5.9895 2.7058 2 252 0
-14.1117 6.1458 2.7058 2 252 0
-14.1117 6.3020 2.7058 2 252 0
-14.1117 6.4583 2.7058 2 252 0
-17.3929 5.8333 3.3308 24 230 0
-17.2367 5.8333 3.3308 24 230 0
-17.3929 5.9895 3.3308 24 230 0
-17.2367 5.9895 3.3308 24 230 0
-17.2367 6.1458 3.3308 24 230 0
-17.2367 6.3020 3.3308 24 230 0
-17.2367 6.4583 3.3308 24 230 0
-17.0804 6.3020 3.3308 24 230 0
-17.0804 6.4583 3.3308 24 230 0
-16.2992 6.4583 3.1745 19 235 0
-16.2992 6.6145 3.1745 19 235 0
-16.4554 6.7708 3.3308 24 230 0
-17.2367 5.6770 3.4870 30 224 0
-17.3929 5.8333 3.6433 35 219 0
-17.3929 5.9895 3.6433 35 219 0
-17.3929 6.1458 3.6433 35 219 0
-16.2992 5.6770 3.4870 30 224 0
-16.2992 5.8333 3.4870 30 224 0
-16.2992 5.9895 3.4870 30 224 0
-16.2992 6.1458 3.6433 35 219 0
-17.2367 6.7708 3.6433 35 219 0
-17.0804 6.6145 3.6433 35 219 0
-16.4554 6.3020 3.6433 35 219 0
-16.4554 6.4583 3.6433 35 219 0
-16.4554 6.6145 3.6433 35 219 0
-16.1429 6.4583 3.1745 19 235 0
-15.8304 6.7708 3.3308 24 230 0
-16.2992 6.9270 3.1745 19 235 0
-16.4554 6.9270 3.3308 24 230 0
-16.4554 7.0833 3.3308 24 230 0
-16.2992 7.0833 3.3308 24 230 0
-16.6117 7.2395 3.3308 24 230 0
-16.4554 7.2395 3.3308 24 230 0
-16.4554 7.3958 3.3308 24 230 0
-16.6117 7.5520 3.3308 24 230 0
-16.7679 7.7083 3.3308 24 230 0
-16.4554 7.5520 3.3308 24 230 0
-16.7679 7.8645 3.3308 24 230 0
-16.6117 7.8645 3.3308 24 230 0
-17.2367 7.0833 3.6433 35 219 0
-17.2367 7.2395 3.6433 35 219 0
-17.2367 7.3958 3.7995 41 213 0
-16.2992 7.3958 3.6433 35 219 0
-17.2367 7.7083 3.4870 30 224 0
-17.3929 7.8645 3.6433 35 219 0
-17.2367 7.8645 3.6433 35 219 0
-17.2367 8.0208 3.6433 35 219 0
-16.9242 8.0208 3.4870 30 224 0
-17.2367 7.7083 3.7995 41 213 0
-17.3929 7.8645 3.7995 41 213 0
-16.2992 7.5520 3.6433 35 219 0
-16.7679 8.0208 3.4870 30 224 0
-16.2992 7.7083 3.7995 41 213 0
-16.2992 7.8645 3.7995 41 213 0
-16.4554 8.0208 3.7995 41 213 0
-15.8304 6.9270 3.3308 24 230 0
-15.8304 7.0833 3.3308 24 230 0
-15.6742 7.0833 3.3308 24 230 0
-15.8304 7.2395 3.3308 24 230 0
-15.6742 7.3958 3.3308 24 230 0
-16.1429 7.0833 3.6433 35 219 0
-15.8304 7.3958 3.4870 30 224 0
-15.6742 7.3958 3.4870 30 224 0
-15.6742 7.5520 3.4870 30 224 0
-15.3617 6.3020 4.1120 52 202 0
-15.3617 6.4583 4.1120 52 202 0
-15.2054 6.6145 4.1120 52 202 0
-16.7679 8.0208 4.8933 79 175 0
-14.7367 5.6770 3.4870 30 224 0
-14.5804 5.6770 3.4870 30 224 0
-14.4242 5.8333 3.4870 30 224 0
-14.7367 5.9895 3.4870 30 224 0
-14.7367 6.1458 3.4870 30 224 0
-14.2679 5.9895 3.4870 30 224 0
-14.7367 6.4583 3.4870 30 224 0
-14.5804 6.3020 3.4870 30 224 0
-14.7367 6.6145 3.4870 30 224 0
-14.7367 6.7708 3.4870 30 224 0
-14.2679 6.3020 3.4870 30 224 0
-14.1117 6.4583 3.4870 30 224 0
-13.6429 5.6770 3.0183 13 241 0
-13.4867 5.6770 3.1745 19 235 0
-13.4867 5.8333 3.1745 19 235 0
-13.4867 5.8333 3.3308 24 230 0
-13.6429 5.9895 3.1745 19 235 0
-13.4867 5.9895 3.1745 19 235 0
-13.6429 6.1458 3.1745 19 235 0
-13.3304 5.9895 3.3308 24 230 0
-13.3304 6.1458 3.3308 24 230 0
-13.6429 6.3020 3.1745 19 235 0
-13.6429 6.4583 3.1745 19 235 0
-13.1742 6.3020 3.3308 24 230 0
-13.6429 6.6145 3.1745 19 235 0
-13.4867 6.7708 3.1745 19 235 0
-13.0179 6.4583 3.3308 24 230 0
-13.0179 6.6145 3.3308 24 230 0
-12.8617 6.7708 3.4870 30 224 0
-12.7054 6.7708 3.6433 35 219 0
-12.8617 6.6145 3.7995 41 213 0
-12.8617 6.7708 3.7995 41 213 0
-12.7054 6.7708 3.7995 41 213 0
-14.1117 7.3958 2.8620 8 246 0
-14.4242 8.0208 3.0183 13 241 0
-14.4242 7.7083 3.3308 24 230 0
-14.2679 7.5520 2.8620 8 246 0
-14.2679 7.7083 2.8620 8 246 0
-14.2679 7.8645 2.8620 8 246 0
-14.2679 7.8645 3.3308 24 230 0
-14.2679 8.0208 3.3308 24 230 0
-14.7367 6.9270 3.6433 35 219 0
-14.7367 7.0833 3.6433 35 219 0
-14.2679 6.9270 3.6433 35 219 0
-13.9554 6.9270 3.4870 30 224 0
-13.9554 7.3958 3.6433 35 219 0
-14.5804 7.5520 3.6433 35 219 0
-14.5804 7.7083 3.6433 35 219 0
-14.7367 8.0208 3.6433 35 219 0
-14.4242 8.0208 3.4870 30 224 0
-14.5804 7.8645 3.6433 35 219 0
-13.4867 6.9270 3.1745 19 235 0
-13.4867 7.0833 3.3308 24 230 0
-13.4867 7.2395 3.3308 24 230 0
-13.6429 7.3958 3.3308 24 230 0
-13.4867 7.3958 3.3308 24 230 0
-13.6429 7.5520 3.3308 24 230 0
-13.6429 7.7083 3.3308 24 230 0
-13.4867 7.2395 3.7995 41 213 0
-13.4867 7.3958 3.7995 41 213 0
-13.3304 7.3958 3.7995 41 213 0
-13.1742 7.3958 3.7995 41 213 0
-12.8617 6.9270 3.4870 30 224 0
-12.5492 7.0833 3.6433 35 219 0
-12.7054 7.2395 3.4870 30 224 0
-12.5492 7.3958 3.4870 30 224 0
-12.7054 6.9270 3.7995 41 213 0
-13.1742 7.5520 3.7995 41 213 0
-13.1742 7.7083 3.7995 41 213 0
-12.5492 7.5520 3.4870 30 224 0
-12.5492 7.8645 3.6433 35 219 0
-12.5492 8.0208 3.6433 35 219 0
-17.3929 8.1770 3.6433 35 219 0
-17.2367 8.3333 3.6433 35 219 0
-16.9242 8.1770 3.4870 30 224 0
-16.9242 8.3333 3.4870 30 224 0
-17.3929 8.4895 3.6433 35 219 0
-17.2367 8.6458 3.6433 35 219 0
-17.0804 8.4895 3.4870 30 224 0
-16.9242 8.4895 3.4870 30 224 0
-17.0804 8.6458 3.4870 30 224 0
-17.3929 8.1770 3.7995 41 213 0
-17.3929 8.3333 3.7995 41 213 0
-17.3929 8.6458 3.9558 46 208 0
-16.4554 8.3333 3.7995 41 213 0
-16.4554 8.4895 3.7995 41 213 0
-16.4554 8.6458 3.7995 41 213 0
-17.3929 8.8020 3.6433 35 219 0
-17.3929 9.2708 3.6433 35 219 0
-16.6117 8.9583 3.9558 46 208 0
-15.6742 8.8020 3.6433 35 219 0
-15.6742 9.1145 3.6433 35 219 0
-15.8304 9.2708 3.6433 35 219 0
-15.5179 8.8020 3.6433 35 219 0
-15.5179 9.1145 3.6433 35 219 0
-17.0804 9.8958 3.9558 46 208 0
-16.2992 9.7395 3.9558 46 208 0
-17.2367 10.2083 3.9558 46 208 0
-17.2367 10.3645 3.9558 46 208 0
-16.2992 10.0520 3.9558 46 208 0
-16.2992 10.3645 3.9558 46 208 0
-15.0492 9.5833 3.1745 19 235 0
-15.0492 9.7395 3.1745 19 235 0
-15.2054 9.7395 3.3308 24 230 0
-15.2054 9.8958 3.3308 24 230 0
-15.2054 10.2083 3.3308 24 230 0
-15.3617 10.3645 3.3308 24 230 0
-15.3617 10.5208 3.3308 24 230 0
-15.6742 9.4270 3.6433 35 219 0
-15.6742 9.7395 3.6433 35 219 0
-15.8304 9.5833 3.7995 41 213 0
-15.6742 9.7395 3.7995 41 213 0
-15.8304 9.8958 3.7995 41 213 0
-15.9867 10.2083 3.7995 41 213 0
-15.8304 10.2083 3.7995 41 213 0
-15.6742 10.2083 3.7995 41 213 0
-15.9867 10.3645 3.9558 46 208 0
-16.7679 8.1770 4.8933 79 175 0
-16.6117 8.1770 4.8933 79 175 0
-16.6117 8.3333 4.8933 79 175 0
-16.4554 8.4895 4.8933 79 175 0
-15.8304 8.8020 4.8933 79 175 0
-15.6742 8.8020 4.8933 79 175 0
-15.6742 8.9583 4.8933 79 175 0
-15.5179 8.9583 4.8933 79 175 0
-15.5179 9.1145 4.8933 79 175 0
-15.3617 9.1145 4.8933 79 175 0
-16.2992 10.5208 4.1120 52 202 0
-14.4242 8.1770 3.0183 13 241 0
-14.4242 8.3333 3.0183 13 241 0
-14.5804 8.4895 3.0183 13 241 0
-14.4242 8.4895 3.0183 13 241 0
-14.5804 8.6458 3.0183 13 241 0
-14.2679 8.1770 2.8620 8 246 0
-14.1117 8.1770 3.3308 24 230 0
-14.5804 8.8020 3.0183 13 241 0
-14.5804 8.9583 3.0183 13 241 0
-14.7367 9.1145 3.1745 19 235 0
-14.7367 8.3333 3.7995 41 213 0
-14.7367 8.6458 3.7995 41 213 0
-14.2679 8.1770 3.4870 30 224 0
-14.2679 8.3333 3.4870 30 224 0
-14.1117 8.4895 3.4870 30 224 0
-14.7367 8.9583 3.7995 41 213 0
-14.8929 9.1145 3.7995 41 213 0
-14.7367 9.1145 3.7995 41 213 0
-13.3304 8.1770 3.3308 24 230 0
-13.3304 8.3333 3.3308 24 230 0
-13.3304 8.4895 3.3308 24 230 0
-12.7054 8.4895 3.3308 24 230 0
-12.5492 8.6458 3.3308 24 230 0
-12.5492 8.9583 2.8620 8 246 0
-12.5492 9.1145 2.8620 8 246 0
-12.5492 9.2708 2.8620 8 246 0
-12.5492 9.1145 3.0183 13 241 0
-12.5492 8.8020 3.3308 24 230 0
-12.5492 8.9583 3.3308 24 230 0
-12.5492 9.1145 3.3308 24 230 0
-13.4867 8.6458 3.4870 30 224 0
-13.6429 8.1770 3.7995 41 213 0
-13.4867 8.9583 3.4870 30 224 0
-13.4867 9.1145 3.4870 30 224 0
-13.3304 8.8020 3.7995 41 213 0
-13.1742 9.2708 3.7995 41 213 0
-14.8929 9.4270 3.1745 19 235 0
-14.7367 9.4270 3.1745 19 235 0
-14.8929 9.5833 3.1745 19 235 0
-14.5804 9.7395 3.7995 41 213 0
-14.5804 9.8958 3.7995 41 213 0
-14.1117 9.7395 3.6433 35 219 0
-13.9554 9.7395 3.6433 35 219 0
-14.5804 10.5208 3.9558 46 208 0
-13.9554 10.0520 3.6433 35 219 0
-13.9554 10.2083 3.6433 35 219 0
-14.1117 10.3645 3.6433 35 219 0
-14.1117 10.3645 3.7995 41 213 0
-12.7054 9.4270 3.0183 13 241 0
-12.5492 9.4270 3.0183 13 241 0
-12.5492 9.5833 3.0183 13 241 0
-12.7054 9.7395 3.0183 13 241 0
-12.7054 9.8958 3.0183 13 241 0
-12.8617 10.0520 3.0183 13 241 0
-12.8617 10.2083 3.0183 13 241 0
-12.7054 10.2083 3.0183 13 241 0
-12.8617 10.3645 3.0183 13 241 0
-12.8617 10.3645 3.1745 19 235 0
-13.0179 10.5208 3.1745 19 235 0
-13.4867 9.4270 3.6433 35 219 0
-13.6429 9.5833 3.6433 35 219 0
-13.1742 9.5833 3.7995 41 213 0
-13.1742 9.7395 3.9558 46 208 0
-13.1742 9.8958 3.9558 46 208 0
-13.3304 10.0520 3.4870 30 224 0
-13.3304 10.0520 3.6433 35 219 0
-13.3304 10.2083 3.6433 35 219 0
-13.3304 10.5208 3.6433 35 219 0
-14.1117 9.5833 4.8933 79 175 0
-13.9554 9.5833 4.8933 79 175 0
-13.7992 9.7395 4.7370 74 180 0
-13.9554 9.7395 4.8933 79 175 0
-13.7992 9.7395 4.8933 79 175 0
-13.6429 9.8958 4.8933 79 175 0
-12.3929 5.6770 2.7058 2 252 0
-12.3929 6.7708 2.5495 0 252 2
-10.3617 5.6770 2.2370 0 241 13
-10.3617 5.8333 2.2370 0 241 13
-10.3617 5.9895 2.2370 0 241 13
-10.5179 6.1458 2.3933 0 246 8
-10.5179 6.3020 2.3933 0 246 8
-10.5179 6.4583 2.3933 0 246 8
-10.3617 6.4583 2.3933 0 246 8
-10.3617 6.6145 2.3933 0 246 8
-10.3617 6.7708 2.3933 0 246 8
-12.2367 6.9270 2.5495 0 252 2
-12.2367 7.0833 2.5495 0 252 2
-12.3929 7.0833 2.7058 2 252 0
-12.2367 7.2395 2.5495 0 252 2
-12.3929 7.2395 2.7058 2 252 0
-12.2367 7.3958 2.7058 2 252 0
-10.3617 6.9270 2.3933 0 246 8
-10.3617 7.0833 2.3933 0 246 8
-10.3617 7.0833 2.5495 0 252 2
-10.5179 7.2395 2.5495 0 252 2
-10.3617 7.2395 2.5495 0 252 2
-10.5179 7.3958 2.5495 0 252 2
-10.2054 7.5520 2.2370 0 241 13
-10.2054 7.7083 2.2370 0 241 13
-10.0492 7.7083 2.2370 0 241 13
-10.2054 7.8645 2.2370 0 241 13
-10.2054 8.0208 2.2370 0 241 13
-10.0492 8.0208 2.2370 0 241 13
-10.3617 7.5520 2.5495 0 252 2
-10.3617 7.7083 2.5495 0 252 2
-10.3617 7.8645 2.5495 0 252 2
-10.3617 8.0208 2.5495 0 252 2
-8.7992 5.6770 2.0808 0 235 19
-8.7992 5.9895 2.0808 0 235 19
-8.7992 6.7708 2.2370 0 241 13
-8.6429 5.9895 2.0808 0 235 19
-8.6429 6.1458 2.0808 0 235 19
-8.6429 6.3020 2.0808 0 235 19
-8.1742 5.8333 2.7058 2 252 0
-8.1742 5.9895 2.7058 2 252 0
-8.0179 6.1458 2.7058 2 252 0
-8.6429 6.4583 2.2370 0 241 13
-8.6429 6.6145 2.2370 0 241 13
-7.8617 6.4583 2.7058 2 252 0
-9.8929 6.9270 2.2370 0 241 13
-9.7367 7.0833 2.2370 0 241 13
-9.7367 7.2395 2.2370 0 241 13
-9.7367 7.3958 2.2370 0 241 13
-8.7992 6.9270 2.2370 0 241 13
-8.7992 7.0833 2.2370 0 241 13
-9.7367 7.5520 2.2370 0 241 13
-8.7992 7.8645 2.3933 0 246 8
-8.7992 8.0208 2.3933 0 246 8
-8.3304 7.3958 2.0808 0 235 19
-8.3304 7.5520 1.9245 0 230 24
-8.1742 7.5520 1.9245 0 230 24
-8.3304 7.5520 2.0808 0 235 19
-8.1742 7.7083 2.0808 0 235 19
-8.1742 7.8645 2.0808 0 235 19
-8.6429 7.2395 2.2370 0 241 13
-8.6429 7.3958 2.3933 0 246 8
-8.6429 7.5520 2.3933 0 246 8
-8.6429 7.7083 2.3933 0 246 8
-8.4867 7.8645 2.3933 0 246 8
-8.6429 8.0208 2.3933 0 246 8
-12.2367 8.3333 2.7058 2 252 0
-10.0492 8.1770 2.2370 0 241 13
-10.3617 8.1770 2.5495 0 252 2
-10.3617 8.3333 2.7058 2 252 0
-10.3617 8.4895 2.7058 2 252 0
-10.3617 8.6458 2.7058 2 252 0
-10.2054 9.1145 2.3933 0 246 8
-10.2054 9.2708 2.3933 0 246 8
-10.3617 8.8020 2.7058 2 252 0
-10.2054 8.9583 2.7058 2 252 0
-10.2054 9.1145 2.7058 2 252 0
-10.2054 9.2708 2.7058 2 252 0
-10.2054 9.4270 2.3933 0 246 8
-10.2054 9.5833 2.3933 0 246 8
-10.3617 9.4270 2.7058 2 252 0
-10.3617 9.5833 2.7058 2 252 0
-10.2054 9.4270 2.5495 0 252 2
-10.2054 9.5833 2.5495 0 252 2
-10.2054 9.7395 2.5495 0 252 2
-10.2054 9.8958 2.5495 0 252 2
-10.0492 9.8958 2.7058 2 252 0
-10.3617 10.2083 2.5495 0 252 2
-10.2054 10.0520 2.5495 0 252 2
-10.0492 10.0520 2.7058 2 252 0
-10.0492 10.2083 2.7058 2 252 0
-10.3617 10.5208 2.5495 0 252 2
-10.3617 10.5208 2.7058 2 252 0
-10.2054 10.3645 2.5495 0 252 2
-10.2054 10.3645 2.7058 2 252 0
-10.0492 10.3645 2.7058 2 252 0
-10.2054 10.5208 2.7058 2 252 0
-9.7367 8.4895 2.3933 0 246 8
-9.7367 8.6458 2.3933 0 246 8
-9.7367 8.6458 2.5495 0 252 2
-9.7367 8.8020 2.3933 0 246 8
-9.8929 8.8020 2.5495 0 252 2
-9.8929 8.9583 2.5495 0 252 2
-9.7367 8.9583 2.5495 0 252 2
-9.8929 9.1145 2.5495 0 252 2
-9.7367 9.1145 2.5495 0 252 2
-9.8929 9.2708 2.5495 0 252 2
-7.8617 8.3333 1.7683 0 224 30
-7.8617 8.4895 1.7683 0 224 30
-7.7054 8.6458 1.7683 0 224 30
-7.8617 8.6458 1.9245 0 230 24
-7.7054 8.8020 1.7683 0 224 30
-8.6429 8.1770 2.3933 0 246 8
-8.6429 8.3333 2.3933 0 246 8
-8.6429 8.4895 2.5495 0 252 2
-8.6429 8.6458 2.5495 0 252 2
-8.1742 8.8020 2.2370 0 241 13
-8.1742 8.9583 2.2370 0 241 13
-8.3304 9.1145 2.2370 0 241 13
-8.1742 9.1145 2.2370 0 241 13
-8.1742 9.2708 2.2370 0 241 13
-8.6429 8.8020 2.5495 0 252 2
-8.6429 8.9583 2.5495 0 252 2
-8.6429 9.1145 2.5495 0 252 2
-8.6429 9.2708 2.5495 0 252 2
-9.8929 9.4270 2.5495 0 252 2
-9.7367 9.4270 2.5495 0 252 2
-9.8929 9.5833 2.5495 0 252 2
-9.8929 9.7395 2.5495 0 252 2
-9.8929 9.8958 2.5495 0 252 2
-7.8617 9.7395 2.0808 0 235 19
-7.8617 9.8958 2.0808 0 235 19
-7.7054 9.7395 1.9245 0 230 24
-7.7054 9.8958 2.0808 0 235 19
-7.8617 10.0520 2.0808 0 235 19
-7.8617 10.2083 2.0808 0 235 19
-7.7054 10.0520 2.0808 0 235 19
-7.8617 10.3645 2.0808 0 235 19
-7.8617 10.5208 2.0808 0 235 19
-7.7054 10.3645 2.0808 0 235 19
-8.3304 9.4270 2.2370 0 241 13
-8.1742 9.4270 2.2370 0 241 13
-8.3304 9.5833 2.2370 0 241 13
-8.1742 9.5833 2.2370 0 241 13
-8.3304 9.5833 2.3933 0 246 8
-8.1742 9.7395 2.2370 0 241 13
-8.4867 9.4270 2.5495 0 252 2
-8.4867 9.7395 2.7058 2 252 0
-8.6429 9.8958 2.7058 2 252 0
-8.1742 10.0520 2.3933 0 246 8
-8.4867 10.3645 2.3933 0 246 8
-8.4867 10.5208 2.3933 0 246 8
-8.3304 10.3645 2.3933 0 246 8
-8.6429 10.0520 2.7058 2 252 0
-8.6429 10.2083 2.7058 2 252 0
-8.6429 10.3645 2.7058 2 252 0
-12.2367 5.8333 2.8620 8 246 0
-12.2367 5.9895 2.8620 8 246 0
-12.2367 6.1458 2.8620 8 246 0
-12.0804 5.6770 3.1745 19 235 0
-12.0804 5.8333 3.1745 19 235 0
-11.9242 5.9895 3.1745 19 235 0
-11.2992 5.6770 3.0183 13 241 0
-11.7679 6.1458 3.1745 19 235 0
-12.2367 6.3020 2.8620 8 246 0
-12.0804 6.4583 2.8620 8 246 0
-12.2367 6.6145 2.8620 8 246 0
-12.2367 6.7708 2.8620 8 246 0
-12.0804 6.6145 2.8620 8 246 0
-11.9242 6.4583 3.1745 19 235 0
-11.9242 6.6145 3.3308 24 230 0
-11.7679 6.3020 3.1745 19 235 0
-11.7679 6.7708 3.3308 24 230 0
-11.1429 5.8333 3.0183 13 241 0
-11.1429 5.9895 3.0183 13 241 0
-10.9867 6.1458 3.0183 13 241 0
-10.3617 5.6770 3.0183 13 241 0
-10.2054 5.8333 3.0183 13 241 0
-10.2054 5.9895 3.0183 13 241 0
-10.0492 6.1458 3.0183 13 241 0
-10.9867 6.3020 3.1745 19 235 0
-10.8304 6.4583 3.1745 19 235 0
-10.6742 6.6145 3.1745 19 235 0
-10.6742 6.7708 3.1745 19 235 0
-10.0492 6.3020 3.0183 13 241 0
-10.5179 6.7708 3.1745 19 235 0
-12.2367 6.9270 2.8620 8 246 0
-12.2367 7.0833 3.0183 13 241 0
-12.2367 7.2395 3.0183 13 241 0
-12.0804 7.3958 3.0183 13 241 0
-11.7679 6.9270 3.3308 24 230 0
-11.6117 7.0833 3.3308 24 230 0
-11.6117 7.2395 3.3308 24 230 0
-11.4554 7.3958 3.3308 24 230 0
-12.2367 7.5520 3.0183 13 241 0
-12.2367 7.7083 3.0183 13 241 0
-12.0804 7.5520 3.0183 13 241 0
-12.2367 7.8645 3.0183 13 241 0
-12.2367 8.0208 3.0183 13 241 0
-11.4554 7.5520 3.3308 24 230 0
-11.2992 7.7083 3.3308 24 230 0
-11.2992 7.2395 3.4870 30 224 0
-11.2992 7.3958 3.4870 30 224 0
-12.3929 7.7083 3.4870 30 224 0
-10.6742 7.0833 3.1745 19 235 0
-10.6742 7.2395 3.1745 19 235 0
-10.5179 6.9270 3.1745 19 235 0
-10.5179 7.3958 3.3308 24 230 0
-11.1429 7.8645 3.3308 24 230 0
-11.1429 8.0208 3.3308 24 230 0
-10.5179 7.5520 3.3308 24 230 0
-10.3617 7.7083 3.3308 24 230 0
-10.2054 8.0208 3.3308 24 230 0
-11.1429 7.3958 3.4870 30 224 0
-11.1429 7.5520 3.4870 30 224 0
-10.9867 7.7083 3.4870 30 224 0
-10.9867 5.9895 5.0495 84 170 0
-10.5179 5.6770 4.8933 79 175 0
-10.3617 5.9895 4.8933 79 175 0
-10.9867 6.3020 5.2058 90 164 0
-10.9867 6.6145 5.2058 90 164 0
-10.3617 6.3020 5.0495 84 170 0
-10.3617 6.6145 5.0495 84 170 0
-10.3617 6.9270 5.2058 90 164 0
-10.3617 7.2395 5.2058 90 164 0
-9.1117 5.6770 2.8620 8 246 0
-8.9554 5.8333 2.8620 8 246 0
-8.7992 5.9895 2.8620 8 246 0
-8.7992 6.1458 2.8620 8 246 0
-9.8929 6.6145 3.0183 13 241 0
-9.7367 6.6145 3.0183 13 241 0
-8.4867 6.7708 2.8620 8 246 0
-8.3304 6.7708 3.0183 13 241 0
-7.7054 6.6145 2.8620 8 246 0
-7.5492 6.7708 2.8620 8 246 0
-9.4242 7.0833 3.1745 19 235 0
-9.2679 7.3958 3.1745 19 235 0
-9.8929 7.5520 3.3308 24 230 0
-9.7367 7.7083 3.3308 24 230 0
-9.7367 7.8645 3.3308 24 230 0
-9.5804 7.8645 3.3308 24 230 0
-9.4242 8.0208 3.3308 24 230 0
-8.1742 7.0833 3.0183 13 241 0
-7.5492 6.9270 2.8620 8 246 0
-8.0179 7.2395 3.0183 13 241 0
-7.8617 7.5520 3.0183 13 241 0
-7.7054 7.7083 3.0183 13 241 0
-7.7054 7.8645 3.0183 13 241 0
-7.8617 8.0208 3.1745 19 235 0
-9.5804 5.6770 4.5808 68 186 0
-9.5804 5.9895 4.5808 68 186 0
-9.2679 5.6770 4.4245 63 191 0
-9.1117 5.8333 4.4245 63 191 0
-9.1117 6.1458 4.5808 68 186 0
-9.1117 6.3020 4.5808 68 186 0
-9.1117 6.6145 4.5808 68 186 0
-9.1117 6.7708 4.5808 68 186 0
-9.5804 6.1458 4.7370 74 180 0
-9.4242 6.4583 4.7370 74 180 0
-9.4242 6.7708 4.7370 74 180 0
-8.0179 5.6770 4.2683 57 197 0
-8.0179 5.9895 4.2683 57 197 0
-8.0179 6.1458 4.2683 57 197 0
-8.0179 6.3020 4.2683 57 197 0
-8.0179 6.6145 4.4245 63 191 0
-8.0179 6.7708 4.4245 63 191 0
-8.9554 7.5520 4.8933 79 175 0
-8.9554 7.8645 4.8933 79 175 0
-7.5492 7.2395 4.4245 63 191 0
-8.6429 7.3958 4.7370 74 180 0
-8.6429 7.5520 4.7370 74 180 0
-8.6429 7.8645 4.7370 74 180 0
-8.4867 8.0208 4.8933 79 175 0
-12.3929 8.3333 2.8620 8 246 0
-12.3929 8.4895 2.8620 8 246 0
-12.3929 8.6458 2.8620 8 246 0
-12.0804 8.4895 3.0183 13 241 0
-12.2367 8.1770 3.1745 19 235 0
-12.0804 8.6458 3.1745 19 235 0
-12.3929 8.8020 2.8620 8 246 0
-12.3929 9.1145 2.8620 8 246 0
-12.3929 8.9583 3.3308 24 230 0
-12.0804 8.8020 3.1745 19 235 0
-12.0804 8.9583 3.1745 19 235 0
-12.2367 9.1145 3.1745 19 235 0
-12.2367 9.2708 3.1745 19 235 0
-12.3929 9.1145 3.3308 24 230 0
-12.0804 9.1145 3.1745 19 235 0
-11.6117 8.9583 3.3308 24 230 0
-11.4554 9.1145 3.1745 19 235 0
-11.4554 9.2708 3.3308 24 230 0
-12.3929 8.1770 3.6433 35 219 0
-12.2367 8.6458 3.6433 35 219 0
-11.9242 9.1145 3.6433 35 219 0
-10.9867 8.1770 3.3308 24 230 0
-10.6742 8.6458 3.3308 24 230 0
-10.0492 8.1770 3.3308 24 230 0
-10.9867 8.1770 3.4870 30 224 0
-11.1429 8.3333 3.4870 30 224 0
-10.9867 8.3333 3.4870 30 224 0
-10.8304 8.3333 3.4870 30 224 0
-11.1429 8.4895 3.4870 30 224 0
-10.8304 8.4895 3.4870 30 224 0
-10.6742 8.6458 3.4870 30 224 0
-10.8304 8.8020 3.4870 30 224 0
-10.8304 9.1145 3.4870 30 224 0
-10.6742 9.2708 3.4870 30 224 0
-12.2367 9.4270 3.1745 19 235 0
-12.2367 9.5833 3.1745 19 235 0
-12.2367 9.7395 3.3308 24 230 0
-11.4554 9.4270 3.3308 24 230 0
-11.2992 9.5833 3.3308 24 230 0
-11.9242 10.2083 3.1745 19 235 0
-12.0804 10.3645 3.3308 24 230 0
-11.7679 9.5833 3.7995 41 213 0
-11.6117 9.8958 3.7995 41 213 0
-12.2367 10.3645 3.4870 30 224 0
-12.2367 10.5208 3.4870 30 224 0
-11.6117 10.0520 3.7995 41 213 0
-11.6117 10.2083 3.7995 41 213 0
-11.6117 10.3645 3.7995 41 213 0
-10.3617 9.5833 2.8620 8 246 0
-10.3617 9.7395 2.8620 8 246 0
-10.3617 9.8958 2.8620 8 246 0
-10.0492 9.4270 3.1745 19 235 0
-10.3617 10.0520 2.8620 8 246 0
-10.5179 10.2083 2.8620 8 246 0
-10.2054 10.5208 2.8620 8 246 0
-10.5179 9.4270 3.4870 30 224 0
-10.3617 9.7395 3.6433 35 219 0
-10.3617 9.8958 3.6433 35 219 0
-12.2367 10.2083 4.8933 79 175 0
-12.0804 10.3645 4.8933 79 175 0
-11.7679 10.5208 4.8933 79 175 0
-8.9554 8.3333 3.3308 24 230 0
-9.8929 8.8020 3.4870 30 224 0
-9.7367 9.1145 3.4870 30 224 0
-9.7367 9.2708 3.4870 30 224 0
-8.1742 8.1770 3.0183 13 241 0
-8.0179 8.3333 3.0183 13 241 0
-7.7054 8.1770 3.1745 19 235 0
-8.3304 9.1145 2.8620 8 246 0
-8.1742 9.2708 2.8620 8 246 0
-8.0179 9.2708 2.8620 8 246 0
-9.8929 9.5833 3.1745 19 235 0
-9.7367 9.5833 3.1745 19 235 0
-9.8929 9.7395 3.1745 19 235 0
-9.7367 9.8958 3.1745 19 235 0
-8.7992 10.5208 2.8620 8 246 0
-9.5804 9.4270 3.4870 30 224 0
-9.4242 9.5833 3.4870 30 224 0
-9.2679 9.8958 3.4870 30 224 0
-9.1117 10.0520 3.4870 30 224 0
-9.1117 10.2083 3.6433 35 219 0
-9.1117 10.5208 3.6433 35 219 0
-8.1742 9.8958 3.1745 19 235 0
-8.0179 9.8958 3.1745 19 235 0
-8.0179 10.0520 3.1745 19 235 0
-7.8617 10.2083 3.1745 19 235 0
-8.0179 10.3645 3.1745 19 235 0
-7.8617 10.3645 3.1745 19 235 0
-8.3304 9.7395 3.4870 30 224 0
-8.3304 9.8958 3.4870 30 224 0
-8.9554 8.1770 5.0495 84 170 0
-8.7992 8.4895 5.0495 84 170 0
-8.7992 8.8020 5.2058 90 164 0
-8.7992 9.1145 5.2058 90 164 0
-8.4867 8.3333 4.8933 79 175 0
-8.4867 8.6458 4.8933 79 175 0
-8.4867 8.9583 5.0495 84 170 0
-8.4867 9.1145 5.0495 84 170 0
-8.7992 9.4270 5.2058 90 164 0
-8.0179 9.7395 5.0495 84 170 0
-8.0179 10.0520 5.2058 90 164 0
-8.0179 10.3645 5.2058 90 164 0
-13.4867 -9.3230 6.4558 134 120 0
-12.7054 -8.8542 6.4558 134 120 0
-12.2367 -8.8542 6.1433 123 131 0
-12.3929 -8.8542 6.2995 128 126 0
-11.7679 -8.8542 6.1433 123 131 0
-11.4554 -8.8542 6.1433 123 131 0
-12.0804 -8.6980 6.2995 128 126 0
-11.9242 -8.6980 6.2995 128 126 0
-11.9242 -8.5417 6.2995 128 126 0
-11.6117 -8.6980 6.2995 128 126 0
-10.3617 -9.3230 5.8308 112 142 0
-10.2054 -9.3230 5.8308 112 142 0
-10.0492 -9.1667 5.8308 112 142 0
-11.1429 -9.1667 5.9870 117 137 0
-10.6742 -9.3230 5.9870 117 137 0
-10.8304 -9.1667 5.9870 117 137 0
-10.9867 -9.0105 5.9870 117 137 0
-11.1429 -9.0105 6.1433 123 131 0
-10.6742 -9.0105 5.9870 117 137 0
-10.3617 -9.3230 5.9870 117 137 0
-10.5179 -9.1667 5.9870 117 137 0
-10.2054 -9.0105 5.9870 117 137 0
-11.1429 -8.6980 6.1433 123 131 0
-9.8929 -9.3230 5.8308 112 142 0
-9.4242 -9.1667 5.8308 112 142 0
-9.1117 -9.3230 5.6745 106 148 0
-9.2679 -9.1667 5.8308 112 142 0
-8.7992 -9.3230 5.6745 106 148 0
-8.9554 -9.1667 5.8308 112 142 0
-9.2679 -9.0105 5.8308 112 142 0
-9.8929 -9.0105 5.9870 117 137 0
-9.7367 -9.0105 5.9870 117 137 0
-9.5804 -9.0105 5.9870 117 137 0
-9.2679 -9.0105 5.9870 117 137 0
-8.6429 -9.3230 5.6745 106 148 0
-8.3304 -9.3230 5.6745 106 148 0
-11.7679 4.8958 8.6433 211 43 0
-11.9242 5.0520 8.7995 216 38 0
-11.7679 5.5208 8.7995 216 38 0
-12.8617 5.6770 8.9558 222 32 0
-12.5492 6.1458 9.1120 227 27 0
-12.0804 7.7083 5.6745 106 148 0
-12.3929 7.8645 5.6745 106 148 0
-10.8304 7.0833 5.3620 95 159 0
-10.8304 7.3958 5.3620 95 159 0
-10.5179 8.0208 5.5183 101 153 0
-9.5804 8.0208 5.3620 95 159 0
-10.3617 8.4895 5.5183 101 153 0
-11.1429 9.2708 5.8308 112 142 0
-11.1429 9.4270 5.8308 112 142 0
-9.5804 8.3333 5.3620 95 159 0
-9.5804 8.8020 5.3620 95 159 0
-9.4242 9.2708 5.5183 101 153 0
-8.7992 9.7395 5.3620 95 159 0
-9.1117 10.2083 5.6745 106 148 0
-10.6742 6.7708 8.7995 216 38 0
-10.5179 6.6145 8.7995 216 38 0
-10.6742 7.0833 8.9558 222 32 0
-12.0804 6.7708 9.2683 233 21 0
-10.8304 6.4583 9.2683 233 21 0
-11.2992 7.8645 9.5808 244 10 0
-10.5179 6.9270 9.4245 238 16 0
2.4508 -4.6355 0.3620 0 175 79
2.4508 -4.4792 0.3620 0 175 79
-7.3929 -2.4480 2.5495 0 252 2
-7.3929 -2.1355 2.5495 0 252 2
-5.0492 -2.6042 2.0808 0 235 19
-5.2054 -2.2917 2.0808 0 235 19
-5.2054 -1.9792 2.0808 0 235 19
-2.5492 -2.4480 1.4558 0 213 41
-2.5492 -2.2917 1.6120 0 219 35
-2.7054 -1.9792 1.6120 0 219 35
-5.6742 -1.3542 2.2370 0 241 13
-5.3617 -1.8230 2.2370 0 241 13
-5.5179 -1.5105 2.2370 0 241 13
-5.6742 -1.0417 2.3933 0 246 8
-5.8304 -0.8855 2.3933 0 246 8
-6.2992 0.0520 2.5495 0 252 2
-6.2992 0.2083 2.5495 0 252 2
-6.4554 0.5208 2.7058 2 252 0
-5.9867 -0.5730 2.3933 0 246 8
-5.9867 -0.4167 2.3933 0 246 8
-6.1429 -0.1042 2.5495 0 252 2
-5.8304 0.5208 2.5495 0 252 2
-3.7992 -1.8230 2.7058 2 252 0
-2.8617 -1.6667 1.6120 0 219 35
-3.0179 -1.3542 1.7683 0 224 30
-3.1742 -1.0417 1.7683 0 224 30
-3.3304 -0.7292 1.7683 0 224 30
-3.9554 0.0520 2.0808 0 235 19
-4.1117 0.5208 2.0808 0 235 19
-3.9554 0.3645 2.0808 0 235 19
-3.4867 -0.5730 1.9245 0 230 24
-3.6429 -0.2605 1.9245 0 230 24
-3.4867 0.5208 2.0808 0 235 19
-7.2367 -1.1980 3.1745 19 235 0
-7.2367 -1.0417 3.1745 19 235 0
-7.0804 -0.8855 3.1745 19 235 0
-7.0804 -0.7292 3.1745 19 235 0
-5.8304 -1.1980 3.0183 13 241 0
-5.8304 -1.0417 3.0183 13 241 0
-5.8304 -0.8855 3.1745 19 235 0
-7.0804 -0.4167 3.3308 24 230 0
-6.9242 -0.2605 3.3308 24 230 0
-6.9242 -0.1042 3.3308 24 230 0
-6.7679 0.0520 3.3308 24 230 0
-6.7679 0.2083 3.3308 24 230 0
-6.6117 0.3645 3.4870 30 224 0
-6.6117 0.5208 3.4870 30 224 0
-5.6742 -0.5730 3.1745 19 235 0
-5.6742 -0.4167 3.1745 19 235 0
-5.6742 -0.2605 3.1745 19 235 0
-5.5179 -0.1042 3.3308 24 230 0
-5.5179 0.0520 3.3308 24 230 0
-5.5179 0.3645 3.3308 24 230 0
-5.3617 0.5208 3.3308 24 230 0
-3.7992 -1.6667 2.8620 8 246 0
-3.7992 -1.3542 2.8620 8 246 0
-3.9554 -1.0417 2.8620 8 246 0
-3.7992 -0.8855 2.8620 8 246 0
-3.7992 -0.5730 3.0183 13 241 0
-3.7992 -0.4167 3.0183 13 241 0
-3.7992 -0.1042 3.0183 13 241 0
-3.7992 0.0520 3.1745 19 235 0
-3.7992 0.2083 3.1745 19 235 0
-3.6429 0.5208 3.1745 19 235 0
-2.5492 0.5208 3.0183 13 241 0
-2.2367 -3.2292 1.2995 0 208 46
-0.5179 -3.6980 0.9870 0 197 57
-0.5179 -3.3855 0.9870 0 197 57
-0.5179 -3.2292 1.1433 0 202 52
-0.0492 -3.3855 0.9870 0 197 57
-2.3929 -2.7605 1.4558 0 213 41
-0.5179 -2.9167 1.1433 0 202 52
-0.0492 -3.0730 0.9870 0 197 57
-0.5179 -2.6042 1.1433 0 202 52
-0.5179 -2.2917 1.1433 0 202 52
-0.5179 -2.1355 1.1433 0 202 52
-1.9242 -2.9167 2.3933 0 246 8
-2.0804 -2.6042 2.3933 0 246 8
-2.0804 -2.1355 2.5495 0 252 2
-0.0492 -2.1355 2.3933 0 246 8
1.6696 -4.3230 0.5183 0 180 74
1.8258 -4.1667 0.5183 0 180 74
1.9821 -4.0105 0.5183 0 180 74
1.3571 -3.2292 0.6745 0 186 68
2.1383 -4.3230 0.9870 0 197 57
2.2946 -4.1667 0.9870 0 197 57
2.2946 -3.8542 0.9870 0 197 57
2.4508 -3.6980 0.9870 0 197 57
0.1071 -2.9167 0.9870 0 197 57
0.1071 -2.6042 0.9870 0 197 57
0.1071 -2.4480 0.9870 0 197 57
0.1071 -2.2917 0.9870 0 197 57
0.2633 -1.9792 0.9870 0 197 57
1.3571 -2.9167 0.6745 0 186 68
1.5133 -2.7605 0.6745 0 186 68
1.5133 -2.4480 0.8308 0 191 63
1.5133 -2.2917 0.8308 0 191 63
1.8258 -2.4480 0.8308 0 191 63
1.5133 -1.9792 0.8308 0 191 63
1.8258 -2.1355 0.8308 0 191 63
1.6696 -1.9792 0.8308 0 191 63
0.2633 -2.6042 2.2370 0 241 13
-0.6742 -1.5105 1.2995 0 208 46
-0.0492 -1.3542 1.1433 0 202 52
-0.5179 -1.8230 1.2995 0 208 46
-0.8304 -1.1980 1.4558 0 213 41
-0.9867 -0.8855 1.4558 0 213 41
-0.0492 -1.0417 1.1433 0 202 52
-0.2054 -0.7292 1.2995 0 208 46
-0.6742 -0.1042 1.4558 0 213 41
-0.3617 -0.4167 1.2995 0 208 46
-0.3617 -0.2605 1.2995 0 208 46
-2.2367 -1.8230 2.5495 0 252 2
-2.3929 -1.5105 2.7058 2 252 0
-2.3929 -1.1980 2.7058 2 252 0
-2.3929 -0.8855 2.7058 2 252 0
-0.0492 -1.8230 2.3933 0 246 8
-0.2054 -1.3542 2.5495 0 252 2
-0.3617 -1.0417 2.5495 0 252 2
-0.3617 -0.7292 2.7058 2 252 0
-1.2992 -0.4167 1.6120 0 219 35
-1.4554 -0.1042 1.6120 0 219 35
-1.6117 0.0520 1.6120 0 219 35
-0.6742 -0.2605 2.7058 2 252 0
0.1071 -1.6667 1.1433 0 202 52
1.6696 -1.8230 0.8308 0 191 63
1.5133 -1.5105 0.8308 0 191 63
1.6696 -1.5105 0.8308 0 191 63
2.2946 -0.8855 0.8308 0 191 63
2.4508 -1.3542 1.4558 0 213 41
1.3571 -1.1980 0.9870 0 197 57
1.5133 -1.1980 0.9870 0 197 57
1.5133 -1.0417 0.9870 0 197 57
1.3571 -0.8855 0.9870 0 197 57
2.4508 -0.8855 1.4558 0 213 41
0.2633 -0.1042 1.2995 0 208 46
1.2008 -0.5730 0.9870 0 197 57
0.1071 0.3645 1.2995 0 208 46
2.1383 -0.5730 0.8308 0 191 63
