ply
format ascii 1.0
comment OctoMap 3D export - Moose Robot
comment Resolution: 0.100 m
element vertex 830
property float x
property float y
property float z
property uchar red
property uchar green
property uchar blue
end_header
-15.8594 -10.7031 -3.5156 0 70 184
-15.8594 -10.3906 -3.5156 0 70 184
-15.8594 -10.0781 -3.5156 0 70 184
-15.5469 -10.3906 -0.5469 0 219 35
-15.0781 -10.3906 -0.5469 0 219 35
-13.9844 -14.4531 -3.6719 0 62 192
-14.1406 -14.2969 -3.6719 0 62 192
-14.1406 -13.9844 -3.6719 0 62 192
-14.1406 -13.6719 -3.6719 0 62 192
-14.2969 -13.3594 -3.6719 0 62 192
-13.8281 -12.5781 -3.5156 0 70 184
-14.2969 -13.0469 -3.3594 0 78 176
-14.2969 -12.7344 -3.3594 0 78 176
-13.8281 -12.4219 -3.5156 0 70 184
-13.8281 -12.1094 -3.5156 0 70 184
-14.2969 -12.4219 -3.3594 0 78 176
-14.2969 -12.1094 -3.3594 0 78 176
-14.4531 -11.4844 -3.3594 0 78 176
-14.4531 -11.3281 -3.3594 0 78 176
-13.9844 -11.7969 -3.5156 0 70 184
-13.9844 -11.6406 -3.5156 0 70 184
-13.9844 -11.3281 -3.5156 0 70 184
-14.2969 -11.7969 -3.3594 0 78 176
-14.6094 -11.0156 -3.3594 0 78 176
-14.6094 -10.8594 -3.3594 0 78 176
-14.1406 -11.0156 -3.5156 0 70 184
-14.1406 -10.8594 -3.5156 0 70 184
-14.2969 -10.7031 -3.5156 0 70 184
-14.4531 -10.2344 -3.6719 0 62 192
-14.7656 -10.5469 -3.3594 0 78 176
-14.7656 -10.3906 -3.3594 0 78 176
-14.7656 -10.0781 -3.3594 0 78 176
-14.2969 -10.3906 -3.6719 0 62 192
-14.7656 -10.3906 -0.5469 0 219 35
-14.4531 -10.3906 -0.5469 0 219 35
-13.9844 -10.3906 -0.3906 0 227 27
-13.6719 -10.3906 -0.3906 0 227 27
-11.9531 -10.3906 -0.2344 0 235 19
-13.5156 -11.4844 0.0781 0 251 3
-13.6719 -11.3281 0.0781 0 251 3
-13.9844 -10.8594 0.0781 0 251 3
-13.6719 -11.1719 0.0781 0 251 3
-13.6719 -10.8594 0.0781 0 251 3
-11.6406 -10.3906 0.2344 3 251 0
-11.4844 -10.5469 0.2344 3 251 0
-11.6406 -10.2344 0.0781 0 251 3
-8.0469 -16.9531 -4.9219 0 0 255
-7.5781 -16.9531 -4.7656 0 7 247
-7.7344 -15.7031 -4.7656 0 7 247
-6.9531 -16.0156 -4.7656 0 7 247
-7.4219 -16.1719 -4.6094 0 15 239
-4.6094 -18.9844 -4.9219 0 0 255
-4.9219 -17.8906 -4.7656 0 7 247
-4.6094 -17.5781 -4.7656 0 7 247
-4.9219 -17.1094 -4.6094 0 15 239
-4.6094 -16.6406 -4.6094 0 15 239
-4.1406 -16.6406 -4.4531 0 23 231
-4.7656 -15.7031 -4.2969 0 31 223
-4.7656 -15.0781 -4.1406 0 39 215
-4.4531 -15.0781 -4.1406 0 39 215
-7.4219 -14.6094 -4.4531 0 23 231
-6.6406 -14.7656 -4.4531 0 23 231
-7.1094 -14.7656 -4.2969 0 31 223
-7.2656 -14.2969 -4.2969 0 31 223
-6.6406 -14.1406 -4.2969 0 31 223
-6.7969 -13.8281 -4.1406 0 39 215
-7.2656 -13.6719 -4.2969 0 31 223
-7.1094 -13.6719 -4.2969 0 31 223
-6.3281 -13.2031 -4.1406 0 39 215
-7.1094 -13.0469 -4.1406 0 39 215
-6.9531 -12.8906 -3.9844 0 47 207
-6.3281 -12.7344 -3.9844 0 47 207
-6.9531 -12.4219 -3.9844 0 47 207
-7.2656 -12.1094 -3.9844 0 47 207
-6.7969 -12.1094 -3.9844 0 47 207
-7.1094 -11.6406 -3.9844 0 47 207
-6.7969 -11.7969 -3.8281 0 54 200
-6.1719 -12.1094 -3.8281 0 54 200
-6.1719 -11.6406 -3.8281 0 54 200
-7.1094 -11.1719 -3.8281 0 54 200
-6.9531 -10.7031 -3.8281 0 54 200
-6.6406 -11.1719 -3.8281 0 54 200
-6.4844 -10.8594 -3.8281 0 54 200
-6.9531 -10.3906 -3.8281 0 54 200
-6.4844 -10.5469 -3.8281 0 54 200
-6.6406 -10.8594 -3.6719 0 62 192
-6.4844 -10.3906 -3.6719 0 62 192
-6.4844 -10.2344 -3.6719 0 62 192
-6.0156 -11.1719 -3.6719 0 62 192
-6.0156 -10.8594 -3.6719 0 62 192
-5.0781 -10.7031 -3.5156 0 70 184
-6.0156 -10.5469 -3.6719 0 62 192
-5.0781 -10.0781 -3.3594 0 78 176
-4.4531 -13.9844 -3.8281 0 54 200
-4.2969 -14.1406 -3.9844 0 47 207
-4.6094 -13.5156 -3.8281 0 54 200
-4.2969 -13.5156 -3.8281 0 54 200
-4.4531 -12.7344 -3.6719 0 62 192
-4.2969 -12.8906 -3.6719 0 62 192
-4.9219 -12.2656 -3.6719 0 62 192
-4.4531 -12.4219 -3.6719 0 62 192
-4.9219 -11.9531 -3.6719 0 62 192
-4.6094 -11.9531 -3.5156 0 70 184
-4.2969 -12.4219 -3.6719 0 62 192
-4.2969 -11.9531 -3.6719 0 62 192
-4.9219 -11.6406 -3.6719 0 62 192
-4.2969 -11.6406 -3.5156 0 70 184
-4.7656 -11.0156 -3.6719 0 62 192
-4.9219 -11.1719 -3.5156 0 70 184
-4.9219 -11.0156 -3.5156 0 70 184
-4.4531 -11.0156 -3.5156 0 70 184
-4.7656 -10.8594 -3.5156 0 70 184
-4.4531 -10.7031 -3.5156 0 70 184
-4.2969 -11.1719 -3.5156 0 70 184
-4.9219 -10.5469 -3.5156 0 70 184
-4.9219 -10.3906 -3.5156 0 70 184
-4.9219 -10.2344 -3.5156 0 70 184
-4.9219 -10.0781 -3.5156 0 70 184
-17.1094 -9.6094 -3.5156 0 70 184
-17.1094 -9.2969 -3.5156 0 70 184
-17.2656 -8.9844 -3.5156 0 70 184
-17.2656 -8.8281 -3.5156 0 70 184
-16.3281 -8.9844 -3.5156 0 70 184
-16.3281 -9.1406 -3.3594 0 78 176
-15.8594 -9.7656 -3.5156 0 70 184
-15.8594 -9.6094 -3.5156 0 70 184
-15.8594 -9.2969 -3.5156 0 70 184
-16.0156 -8.9844 -3.5156 0 70 184
-16.0156 -8.8281 -3.5156 0 70 184
-17.2656 -8.5156 -3.5156 0 70 184
-16.4844 -8.6719 -3.5156 0 70 184
-16.4844 -8.3594 -3.5156 0 70 184
-16.4844 -8.2031 -3.5156 0 70 184
-16.7969 -8.0469 -3.5156 0 70 184
-16.7969 -7.7344 -3.5156 0 70 184
-16.3281 -7.5781 -3.5156 0 70 184
-16.0156 -8.5156 -3.5156 0 70 184
-16.0156 -8.3594 -3.5156 0 70 184
-17.5781 -5.2344 -3.6719 0 62 192
-16.9531 -7.1094 -3.5156 0 70 184
-16.6406 -7.2656 -3.5156 0 70 184
-16.3281 -7.4219 -3.5156 0 70 184
-16.7969 -6.9531 -3.5156 0 70 184
-17.1094 -6.7969 -3.5156 0 70 184
-17.1094 -6.6406 -3.5156 0 70 184
-17.1094 -6.3281 -3.5156 0 70 184
-16.9531 -6.3281 -3.5156 0 70 184
-16.7969 -6.7969 -3.5156 0 70 184
-16.7969 -6.4844 -3.5156 0 70 184
-15.2344 -7.2656 -3.2031 0 86 168
-15.0781 -6.9531 -3.2031 0 86 168
-15.3906 -6.7969 -3.2031 0 86 168
-15.5469 -6.6406 -3.2031 0 86 168
-15.2344 -6.7969 -3.2031 0 86 168
-17.2656 -6.1719 -3.5156 0 70 184
-16.9531 -6.0156 -3.5156 0 70 184
-17.2656 -5.8594 -3.5156 0 70 184
-17.4219 -5.7031 -3.5156 0 70 184
-17.4219 -5.3906 -3.6719 0 62 192
-15.0781 -9.4531 -0.0781 0 243 11
-15.0781 -9.2969 -0.0781 0 243 11
-15.2344 -9.1406 -0.0781 0 243 11
-16.3281 -7.7344 -0.0781 0 243 11
-15.7031 -8.5156 -0.0781 0 243 11
-16.0156 -8.2031 -0.0781 0 243 11
-15.7031 -8.3594 -0.0781 0 243 11
-15.3906 -8.6719 -0.0781 0 243 11
-15.3906 -8.5156 -0.0781 0 243 11
-15.0781 -8.2031 -0.0781 0 243 11
-15.7031 -8.0469 -0.2344 0 235 19
-15.8594 -7.7344 -0.0781 0 243 11
-15.3906 -8.0469 -0.0781 0 243 11
-15.2344 -7.7344 -0.0781 0 243 11
-16.4844 -7.2656 -0.0781 0 243 11
-15.2344 -6.9531 -0.0781 0 243 11
-15.3906 -6.7969 -0.2344 0 235 19
-15.3906 -6.4844 -0.0781 0 243 11
-16.3281 -5.7031 -0.2344 0 235 19
-16.3281 -5.5469 -0.2344 0 235 19
-16.4844 -5.2344 -0.2344 0 235 19
-15.7031 -6.0156 -0.2344 0 235 19
-14.4531 -9.9219 -3.6719 0 62 192
-13.9844 -9.4531 -3.5156 0 70 184
-14.1406 -9.2969 -3.5156 0 70 184
-13.6719 -8.9844 -3.0469 0 94 160
-14.7656 -7.2656 -3.2031 0 86 168
-14.7656 -7.1094 -3.2031 0 86 168
-14.6094 -9.9219 -0.0781 0 243 11
-14.1406 -9.9219 -0.0781 0 243 11
-13.8281 -9.9219 -0.0781 0 243 11
-14.4531 -9.1406 -0.5469 0 219 35
-14.2969 -9.2969 -0.5469 0 219 35
-13.8281 -9.1406 -0.0781 0 243 11
-13.8281 -8.8281 -0.0781 0 243 11
-13.5156 -9.9219 -0.0781 0 243 11
-14.6094 -8.2031 -0.0781 0 243 11
-14.2969 -8.2031 -0.0781 0 243 11
-14.9219 -7.7344 -0.0781 0 243 11
-14.7656 -7.4219 -0.2344 0 235 19
-14.9219 -7.4219 -0.0781 0 243 11
-14.9219 -7.1094 -0.2344 0 235 19
-13.9844 -6.6406 -0.0781 0 243 11
-14.1406 -6.3281 -0.0781 0 243 11
-13.9844 -6.4844 -0.0781 0 243 11
-17.5781 -4.9219 -3.6719 0 62 192
-16.4844 -4.9219 -0.2344 0 235 19
-16.4844 -4.7656 -0.2344 0 235 19
-16.4844 -4.4531 -0.2344 0 235 19
-15.2344 -8.8281 0.0781 0 251 3
-15.0781 -8.8281 0.0781 0 251 3
-15.3906 -8.6719 0.0781 0 251 3
-15.5469 -8.5156 0.0781 0 251 3
-14.4531 -9.2969 0.0781 0 251 3
-14.9219 -8.9844 0.0781 0 251 3
-13.2031 -9.9219 0.0781 0 251 3
-13.2031 -8.8281 0.0781 0 251 3
-13.2031 -8.9844 0.2344 3 251 0
-13.3594 -8.8281 0.2344 3 251 0
-12.5781 -9.2969 0.0781 0 251 3
-12.7344 -9.1406 0.0781 0 251 3
-12.8906 -8.8281 0.0781 0 251 3
-13.0469 -8.9844 0.2344 3 251 0
-12.7344 -8.9844 0.0781 0 251 3
-13.3594 -8.6719 0.0781 0 251 3
-13.2031 -8.6719 0.0781 0 251 3
-13.3594 -8.5156 0.0781 0 251 3
-13.5156 -8.2031 0.0781 0 251 3
-13.3594 -8.3594 0.0781 0 251 3
-13.3594 -8.2031 0.0781 0 251 3
-13.0469 -8.5156 0.0781 0 251 3
-13.6719 -8.0469 0.0781 0 251 3
-6.9531 -9.9219 -3.6719 0 62 192
-6.9531 -9.7656 -3.6719 0 62 192
-6.9531 -9.4531 -3.6719 0 62 192
-6.3281 -9.7656 -3.6719 0 62 192
-6.4844 -9.7656 -3.5156 0 70 184
-6.3281 -9.6094 -3.6719 0 62 192
-6.4844 -9.6094 -3.5156 0 70 184
-6.9531 -9.2969 -3.6719 0 62 192
-6.9531 -9.1406 -3.6719 0 62 192
-6.9531 -8.9844 -3.6719 0 62 192
-6.9531 -8.8281 -3.5156 0 70 184
-6.7969 -9.2969 -3.6719 0 62 192
-6.4844 -9.2969 -3.6719 0 62 192
-6.4844 -9.2969 -3.5156 0 70 184
-6.4844 -9.1406 -3.5156 0 70 184
-6.4844 -8.8281 -3.5156 0 70 184
-5.0781 -9.9219 -3.3594 0 78 176
-5.0781 -9.7656 -3.3594 0 78 176
-5.0781 -9.6094 -3.3594 0 78 176
-5.2344 -9.4531 -3.3594 0 78 176
-5.0781 -9.4531 -3.3594 0 78 176
-5.2344 -9.2969 -3.3594 0 78 176
-5.0781 -9.2969 -3.3594 0 78 176
-5.3906 -8.8281 -3.3594 0 78 176
-5.2344 -8.9844 -3.3594 0 78 176
-5.2344 -8.8281 -3.3594 0 78 176
-7.2656 -8.6719 -3.6719 0 62 192
-6.9531 -8.6719 -3.5156 0 70 184
-6.9531 -8.5156 -3.5156 0 70 184
-7.2656 -8.3594 -3.6719 0 62 192
-7.2656 -8.2031 -3.6719 0 62 192
-6.9531 -8.3594 -3.5156 0 70 184
-6.4844 -8.6719 -3.5156 0 70 184
-6.4844 -8.5156 -3.5156 0 70 184
-6.4844 -8.2031 -3.5156 0 70 184
-7.2656 -7.8906 -3.6719 0 62 192
-6.9531 -8.0469 -3.5156 0 70 184
-6.9531 -7.8906 -3.5156 0 70 184
-7.2656 -7.7344 -3.6719 0 62 192
-7.4219 -7.5781 -3.5156 0 70 184
-6.9531 -7.7344 -3.5156 0 70 184
-7.1094 -7.5781 -3.5156 0 70 184
-6.4844 -8.0469 -3.5156 0 70 184
-6.4844 -7.8906 -3.5156 0 70 184
-6.6406 -7.7344 -3.5156 0 70 184
-6.6406 -7.5781 -3.5156 0 70 184
-5.3906 -8.6719 -3.3594 0 78 176
-5.3906 -8.5156 -3.3594 0 78 176
-5.2344 -8.6719 -3.3594 0 78 176
-5.5469 -8.3594 -3.3594 0 78 176
-5.3906 -8.3594 -3.3594 0 78 176
-5.5469 -8.2031 -3.3594 0 78 176
-5.3906 -8.2031 -3.3594 0 78 176
-6.1719 -7.8906 -3.3594 0 78 176
-5.7031 -7.8906 -3.3594 0 78 176
-6.1719 -7.7344 -3.3594 0 78 176
-6.1719 -7.5781 -3.3594 0 78 176
-5.7031 -7.7344 -3.3594 0 78 176
-5.7031 -7.5781 -3.3594 0 78 176
-5.7031 -7.5781 -3.2031 0 86 168
-5.5469 -8.0469 -3.3594 0 78 176
-5.5469 -7.8906 -3.3594 0 78 176
-5.5469 -7.7344 -3.3594 0 78 176
-7.5781 -6.3281 -3.5156 0 70 184
-7.5781 -6.1719 -3.5156 0 70 184
-7.5781 -6.0156 -3.5156 0 70 184
-7.5781 -5.8594 -3.5156 0 70 184
-7.7344 -5.7031 -3.5156 0 70 184
-7.5781 -5.7031 -3.5156 0 70 184
-7.7344 -5.5469 -3.5156 0 70 184
-7.5781 -5.5469 -3.5156 0 70 184
-7.7344 -5.3906 -3.5156 0 70 184
-7.5781 -5.3906 -3.5156 0 70 184
-8.0469 -5.0781 -3.6719 0 62 192
-7.8906 -5.2344 -3.5156 0 70 184
-7.8906 -5.0781 -3.5156 0 70 184
-7.7344 -5.2344 -3.5156 0 70 184
-7.5781 -5.2344 -3.5156 0 70 184
-7.7344 -5.0781 -3.5156 0 70 184
-7.5781 -5.0781 -3.5156 0 70 184
-7.4219 -7.4219 -3.5156 0 70 184
-7.4219 -7.2656 -3.5156 0 70 184
-7.1094 -7.4219 -3.5156 0 70 184
-7.1094 -7.2656 -3.5156 0 70 184
-7.4219 -7.1094 -3.5156 0 70 184
-7.1094 -7.1094 -3.5156 0 70 184
-7.1094 -6.9531 -3.5156 0 70 184
-6.6406 -7.4219 -3.5156 0 70 184
-6.6406 -7.2656 -3.5156 0 70 184
-6.3281 -7.1094 -3.5156 0 70 184
-6.3281 -6.9531 -3.5156 0 70 184
-6.3281 -7.2656 -3.3594 0 78 176
-6.7969 -6.9531 -3.3594 0 78 176
-6.3281 -7.1094 -3.3594 0 78 176
-6.3281 -6.9531 -3.3594 0 78 176
-7.4219 -6.7969 -3.5156 0 70 184
-7.2656 -6.7969 -3.5156 0 70 184
-7.4219 -6.6406 -3.5156 0 70 184
-7.2656 -6.6406 -3.5156 0 70 184
-7.4219 -6.4844 -3.5156 0 70 184
-7.2656 -6.4844 -3.5156 0 70 184
-7.2656 -6.3281 -3.5156 0 70 184
-6.4844 -6.7969 -3.5156 0 70 184
-6.4844 -6.6406 -3.5156 0 70 184
-6.6406 -6.3281 -3.5156 0 70 184
-6.4844 -6.4844 -3.5156 0 70 184
-6.7969 -6.7969 -3.3594 0 78 176
-6.7969 -6.6406 -3.3594 0 78 176
-6.4844 -6.7969 -3.3594 0 78 176
-6.4844 -6.6406 -3.3594 0 78 176
-6.7969 -6.4844 -3.3594 0 78 176
-6.7969 -6.3281 -3.3594 0 78 176
-6.6406 -6.3281 -3.3594 0 78 176
-6.4844 -6.4844 -3.3594 0 78 176
-6.1719 -7.4219 -3.5156 0 70 184
-6.1719 -7.2656 -3.5156 0 70 184
-6.1719 -7.4219 -3.3594 0 78 176
-5.7031 -7.4219 -3.3594 0 78 176
-5.8594 -7.2656 -3.3594 0 78 176
-7.2656 -6.1719 -3.5156 0 70 184
-7.4219 -6.0156 -3.5156 0 70 184
-7.4219 -5.8594 -3.5156 0 70 184
-7.4219 -5.7031 -3.5156 0 70 184
-7.2656 -6.1719 -3.3594 0 78 176
-7.2656 -6.0156 -3.3594 0 78 176
-7.2656 -5.8594 -3.3594 0 78 176
-7.4219 -5.7031 -3.3594 0 78 176
-6.6406 -6.1719 -3.5156 0 70 184
-6.7969 -6.0156 -3.5156 0 70 184
-6.7969 -5.8594 -3.5156 0 70 184
-6.7969 -5.7031 -3.5156 0 70 184
-6.6406 -6.1719 -3.3594 0 78 176
-6.6406 -6.0156 -3.3594 0 78 176
-6.7969 -5.8594 -3.3594 0 78 176
-6.7969 -5.7031 -3.3594 0 78 176
-7.4219 -5.5469 -3.5156 0 70 184
-7.4219 -5.3906 -3.5156 0 70 184
-6.9531 -5.5469 -3.5156 0 70 184
-6.9531 -5.3906 -3.5156 0 70 184
-7.1094 -5.2344 -3.5156 0 70 184
-6.9531 -5.2344 -3.5156 0 70 184
-7.1094 -5.0781 -3.5156 0 70 184
-6.9531 -5.5469 -3.3594 0 78 176
-6.9531 -5.3906 -3.3594 0 78 176
-6.9531 -5.2344 -3.3594 0 78 176
-7.1094 -5.0781 -3.3594 0 78 176
-6.7969 -5.5469 -3.3594 0 78 176
-4.9219 -9.7656 -3.5156 0 70 184
-8.2031 -4.7656 -3.5156 0 70 184
-8.2031 -4.6094 -3.5156 0 70 184
-8.2031 -4.4531 -3.5156 0 70 184
-8.0469 -4.9219 -3.5156 0 70 184
-7.8906 -4.9219 -3.5156 0 70 184
-7.8906 -4.7656 -3.5156 0 70 184
-7.7344 -4.9219 -3.5156 0 70 184
-7.5781 -4.9219 -3.5156 0 70 184
-7.5781 -4.7656 -3.5156 0 70 184
-7.8906 -4.6094 -3.5156 0 70 184
-8.0469 -4.4531 -3.5156 0 70 184
-7.5781 -4.6094 -3.5156 0 70 184
-7.7344 -4.4531 -3.5156 0 70 184
-8.2031 -4.2969 -3.5156 0 70 184
-8.2031 -4.1406 -3.5156 0 70 184
-8.3594 -3.9844 -3.5156 0 70 184
-8.3594 -3.8281 -3.5156 0 70 184
-8.0469 -4.2969 -3.5156 0 70 184
-8.0469 -4.1406 -3.5156 0 70 184
-7.7344 -4.2969 -3.5156 0 70 184
-7.7344 -4.1406 -3.5156 0 70 184
-8.0469 -3.9844 -3.5156 0 70 184
-8.0469 -3.8281 -3.5156 0 70 184
-7.8906 -3.8281 -3.5156 0 70 184
-7.7344 -3.9844 -3.5156 0 70 184
-8.3594 -3.6719 -3.5156 0 70 184
-8.3594 -3.5156 -3.5156 0 70 184
-8.2031 -3.5156 -3.5156 0 70 184
-8.3594 -3.3594 -3.5156 0 70 184
-8.2031 -3.3594 -3.5156 0 70 184
-8.3594 -3.2031 -3.5156 0 70 184
-8.2031 -3.2031 -3.5156 0 70 184
-8.0469 -3.6719 -3.5156 0 70 184
-7.8906 -3.6719 -3.5156 0 70 184
-8.0469 -3.5156 -3.5156 0 70 184
-7.8906 -3.5156 -3.5156 0 70 184
-8.3594 -3.0469 -3.5156 0 70 184
-8.2031 -3.0469 -3.5156 0 70 184
-8.3594 -2.8906 -3.5156 0 70 184
-8.2031 -2.8906 -3.5156 0 70 184
-8.5156 -2.7344 -3.5156 0 70 184
-8.5156 -2.5781 -3.5156 0 70 184
-7.1094 -4.9219 -3.5156 0 70 184
-7.1094 -4.7656 -3.5156 0 70 184
-7.1094 -4.9219 -3.3594 0 78 176
-8.5156 -2.4219 -3.5156 0 70 184
-8.5156 -2.2656 -3.5156 0 70 184
-8.5156 -2.1094 -3.5156 0 70 184
-2.5781 -3.3594 -2.4219 0 125 129
-2.5781 -3.2031 -2.4219 0 125 129
-1.4844 -4.4531 -2.2656 0 133 121
-1.3281 -4.4531 -2.2656 0 133 121
-2.1094 -3.8281 -2.4219 0 125 129
-1.9531 -3.9844 -2.2656 0 133 121
-1.9531 -3.8281 -2.2656 0 133 121
-1.4844 -4.2969 -2.2656 0 133 121
-1.3281 -4.2969 -2.2656 0 133 121
-1.4844 -4.1406 -2.2656 0 133 121
-1.3281 -4.1406 -2.2656 0 133 121
-1.7969 -3.9844 -2.2656 0 133 121
-1.6406 -3.9844 -2.2656 0 133 121
-1.7969 -3.8281 -2.2656 0 133 121
-1.4844 -3.9844 -2.2656 0 133 121
-1.3281 -4.1406 -2.1094 0 141 113
-1.1719 -4.6094 -2.2656 0 133 121
-1.0156 -4.6094 -2.2656 0 133 121
-1.1719 -4.4531 -2.2656 0 133 121
-1.0156 -4.6094 -2.1094 0 141 113
-1.0156 -4.4531 -2.1094 0 141 113
-0.8594 -4.6094 -2.1094 0 141 113
-0.7031 -4.6094 -2.1094 0 141 113
-0.8594 -4.4531 -2.1094 0 141 113
-0.7031 -4.4531 -2.1094 0 141 113
-0.7031 -4.6094 -1.9531 0 149 105
-0.8594 -4.4531 -1.9531 0 149 105
-0.7031 -4.4531 -1.9531 0 149 105
-0.3906 -4.7656 -1.9531 0 149 105
-0.2344 -4.7656 -1.9531 0 149 105
-0.0781 -4.7656 -1.9531 0 149 105
-0.5469 -4.6094 -2.1094 0 141 113
-0.5469 -4.4531 -2.1094 0 141 113
-0.5469 -4.6094 -1.9531 0 149 105
-0.3906 -4.6094 -1.9531 0 149 105
-0.5469 -4.4531 -1.9531 0 149 105
-0.3906 -4.4531 -1.9531 0 149 105
-0.2344 -4.6094 -1.9531 0 149 105
-0.2344 -4.4531 -1.9531 0 149 105
-1.1719 -4.2969 -2.1094 0 141 113
-1.0156 -4.2969 -2.1094 0 141 113
-0.8594 -4.2969 -2.1094 0 141 113
-0.0781 -4.7656 -1.7969 0 156 98
-0.2344 -4.6094 -1.7969 0 156 98
-0.0781 -4.6094 -1.7969 0 156 98
-2.2656 -3.6719 -2.4219 0 125 129
-2.4219 -3.5156 -2.4219 0 125 129
-2.2656 -3.5156 -2.4219 0 125 129
-2.1094 -3.6719 -2.4219 0 125 129
-2.1094 -3.6719 -2.2656 0 133 121
-2.4219 -3.3594 -2.4219 0 125 129
-0.5469 -0.8594 -0.7031 0 211 43
-0.3906 -1.0156 -0.5469 0 219 35
-0.3906 -0.8594 -0.5469 0 219 35
-0.5469 -0.7031 -0.5469 0 219 35
-0.7031 -0.5469 -0.5469 0 219 35
-0.2344 -0.3906 -0.5469 0 219 35
-0.0781 -0.3906 -0.3906 0 227 27
-0.3906 -0.2344 -0.5469 0 219 35
-0.3906 -0.0781 -0.5469 0 219 35
-0.2344 -0.2344 -0.5469 0 219 35
-0.0781 -0.2344 -0.5469 0 219 35
-0.0781 -0.2344 -0.3906 0 227 27
-0.0781 -0.0781 -0.3906 0 227 27
3.3594 -14.4531 -1.1719 0 188 66
3.5156 -14.6094 -1.1719 0 188 66
3.6719 -14.4531 -1.0156 0 196 58
3.9844 -14.6094 -1.1719 0 188 66
4.1406 -14.6094 -1.1719 0 188 66
5.0781 -14.7656 -1.3281 0 180 74
5.2344 -14.6094 -1.3281 0 180 74
5.3906 -14.6094 -1.1719 0 188 66
5.5469 -14.4531 -1.0156 0 196 58
5.7031 -14.2969 -1.0156 0 196 58
5.8594 -14.1406 -1.0156 0 196 58
2.2656 -16.6406 1.1719 50 204 0
1.7969 -16.3281 1.3281 58 196 0
1.9531 -16.4844 1.3281 58 196 0
1.9531 -16.3281 1.3281 58 196 0
2.1094 -16.3281 1.3281 58 196 0
2.5781 -16.4844 1.1719 50 204 0
3.6719 -16.7969 1.0156 43 211 0
3.9844 -16.6406 1.1719 50 204 0
4.1406 -16.6406 1.1719 50 204 0
2.7344 -16.4844 1.3281 58 196 0
4.4531 -16.3281 1.3281 58 196 0
4.6094 -16.1719 1.4844 66 188 0
4.1406 -15.8594 1.9531 90 164 0
4.9219 -15.8594 1.9531 90 164 0
0.5469 -16.7969 4.1406 200 54 0
0.7031 -16.7969 4.1406 200 54 0
0.7031 -16.6406 4.1406 200 54 0
1.0156 -16.7969 4.1406 200 54 0
1.0156 -16.6406 4.2969 207 47 0
1.1719 -16.6406 4.2969 207 47 0
1.3281 -16.9531 4.1406 200 54 0
1.4844 -16.7969 4.1406 200 54 0
1.6406 -16.6406 4.1406 200 54 0
1.3281 -15.3906 4.1406 200 54 0
2.8906 -16.7969 3.9844 192 62 0
3.0469 -16.7969 3.9844 192 62 0
3.3594 -16.6406 4.2969 207 47 0
3.5156 -16.6406 4.2969 207 47 0
3.6719 -16.3281 4.1406 200 54 0
3.5156 -16.0156 3.9844 192 62 0
6.4844 -15.0781 2.1094 98 156 0
2.4219 -13.2031 1.1719 50 204 0
1.7969 -12.8906 1.1719 50 204 0
1.9531 -13.0469 1.1719 50 204 0
2.1094 -13.0469 1.1719 50 204 0
1.9531 -12.8906 1.1719 50 204 0
2.1094 -12.8906 1.1719 50 204 0
2.2656 -12.8906 1.3281 58 196 0
2.2656 -12.7344 1.3281 58 196 0
3.5156 -13.5156 1.0156 43 211 0
3.6719 -13.3594 1.0156 43 211 0
2.5781 -13.0469 1.1719 50 204 0
2.7344 -12.8906 1.1719 50 204 0
3.8281 -13.2031 1.1719 50 204 0
3.9844 -13.0469 1.1719 50 204 0
3.9844 -12.8906 1.1719 50 204 0
4.1406 -12.8906 1.1719 50 204 0
2.5781 -13.8281 1.3281 58 196 0
3.2031 -13.8281 1.3281 58 196 0
2.5781 -13.6719 1.3281 58 196 0
2.7344 -13.6719 1.4844 66 188 0
2.7344 -13.5156 1.4844 66 188 0
3.0469 -13.5156 1.4844 66 188 0
2.8906 -13.3594 1.4844 66 188 0
3.0469 -13.2031 1.4844 66 188 0
3.3594 -13.6719 1.4844 66 188 0
3.5156 -13.5156 1.4844 66 188 0
3.6719 -13.3594 1.4844 66 188 0
3.2031 -13.5156 1.6406 74 180 0
2.8906 -12.8906 1.3281 58 196 0
2.7344 -12.7344 1.3281 58 196 0
3.3594 -12.5781 1.4844 66 188 0
3.6719 -12.8906 1.6406 74 180 0
3.5156 -12.7344 1.6406 74 180 0
3.8281 -13.3594 1.4844 66 188 0
4.9219 -13.3594 1.4844 66 188 0
3.9844 -13.0469 1.3281 58 196 0
4.1406 -12.8906 1.3281 58 196 0
4.2969 -12.7344 1.3281 58 196 0
3.8281 -12.8906 1.7969 82 172 0
3.8281 -12.5781 1.6406 74 180 0
3.9844 -12.7344 1.7969 82 172 0
4.2969 -12.7344 1.6406 74 180 0
4.1406 -12.5781 1.7969 82 172 0
4.4531 -12.7344 1.3281 58 196 0
4.4531 -12.5781 1.3281 58 196 0
4.6094 -12.5781 1.4844 66 188 0
4.4531 -12.7344 1.6406 74 180 0
4.6094 -12.5781 1.7969 82 172 0
3.0469 -12.2656 1.4844 66 188 0
3.2031 -12.2656 1.4844 66 188 0
3.8281 -12.2656 1.4844 66 188 0
3.9844 -12.4219 1.7969 82 172 0
3.9844 -12.2656 1.7969 82 172 0
4.1406 -12.4219 1.7969 82 172 0
4.2969 -12.2656 1.7969 82 172 0
4.6094 -12.4219 1.3281 58 196 0
4.7656 -12.4219 1.3281 58 196 0
4.6094 -12.4219 1.7969 82 172 0
4.7656 -12.2656 1.7969 82 172 0
4.9219 -12.1094 1.7969 82 172 0
4.4531 -12.1094 1.9531 90 164 0
4.6094 -11.9531 1.9531 90 164 0
4.7656 -11.9531 1.9531 90 164 0
0.5469 -14.4531 3.5156 168 86 0
1.0156 -14.6094 3.5156 168 86 0
0.3906 -14.2969 3.5156 168 86 0
1.4844 -14.7656 3.0469 145 109 0
1.6406 -14.7656 3.2031 153 101 0
2.1094 -14.6094 3.2031 153 101 0
2.2656 -14.6094 3.3594 160 94 0
1.3281 -13.2031 3.5156 168 86 0
1.4844 -13.2031 3.6719 176 78 0
1.7969 -13.2031 3.5156 168 86 0
1.6406 -13.2031 3.6719 176 78 0
1.9531 -13.2031 3.5156 168 86 0
2.1094 -13.2031 3.5156 168 86 0
2.2656 -13.2031 3.6719 176 78 0
1.4844 -13.0469 3.5156 168 86 0
1.6406 -12.8906 3.6719 176 78 0
1.7969 -12.8906 3.6719 176 78 0
1.7969 -12.5781 3.5156 168 86 0
1.9531 -12.8906 3.6719 176 78 0
2.1094 -12.8906 3.6719 176 78 0
2.4219 -12.8906 3.5156 168 86 0
1.9531 -12.5781 3.6719 176 78 0
2.1094 -12.5781 3.6719 176 78 0
2.2656 -12.5781 3.6719 176 78 0
2.4219 -12.5781 3.6719 176 78 0
1.1719 -14.6094 3.8281 184 70 0
1.3281 -14.7656 3.8281 184 70 0
1.7969 -14.7656 3.8281 184 70 0
2.4219 -12.8906 3.8281 184 70 0
2.8906 -14.9219 3.6719 176 78 0
3.0469 -14.4531 3.5156 168 86 0
2.8906 -14.4531 3.6719 176 78 0
2.5781 -14.2969 3.5156 168 86 0
2.5781 -12.8906 3.6719 176 78 0
2.7344 -12.8906 3.6719 176 78 0
3.2031 -12.8906 3.3594 160 94 0
3.3594 -12.8906 3.3594 160 94 0
3.3594 -13.0469 3.5156 168 86 0
3.5156 -12.8906 3.5156 168 86 0
3.6719 -12.8906 3.5156 168 86 0
3.5156 -12.8906 3.6719 176 78 0
3.6719 -12.8906 3.6719 176 78 0
3.8281 -12.8906 3.6719 176 78 0
3.9844 -12.8906 3.6719 176 78 0
4.1406 -12.8906 3.6719 176 78 0
3.3594 -14.6094 3.9844 192 62 0
2.8906 -13.2031 4.1406 200 54 0
3.0469 -13.2031 4.1406 200 54 0
3.2031 -13.2031 4.1406 200 54 0
2.5781 -13.0469 3.9844 192 62 0
2.7344 -13.0469 3.9844 192 62 0
2.7344 -12.8906 3.9844 192 62 0
2.8906 -12.7344 3.8281 184 70 0
3.0469 -12.7344 3.8281 184 70 0
3.0469 -13.0469 4.1406 200 54 0
3.3594 -12.8906 3.9844 192 62 0
3.5156 -12.8906 3.9844 192 62 0
3.2031 -12.7344 3.8281 184 70 0
4.7656 -13.2031 3.9844 192 62 0
3.9844 -12.8906 3.8281 184 70 0
4.2969 -12.8906 3.8281 184 70 0
4.4531 -12.7344 3.8281 184 70 0
4.9219 -12.7344 4.1406 200 54 0
4.4531 -13.3594 4.6094 223 31 0
4.9219 -13.3594 4.6094 223 31 0
3.9844 -12.4219 3.6719 176 78 0
3.0469 -11.9531 3.8281 184 70 0
3.5156 -12.1094 3.8281 184 70 0
3.6719 -11.9531 3.8281 184 70 0
3.6719 -12.1094 4.1406 200 54 0
2.8906 -11.7969 3.8281 184 70 0
3.0469 -11.6406 3.8281 184 70 0
3.2031 -11.7969 3.8281 184 70 0
3.3594 -11.6406 3.8281 184 70 0
3.2031 -11.4844 3.8281 184 70 0
3.3594 -11.4844 3.8281 184 70 0
4.1406 -12.4219 3.8281 184 70 0
4.2969 -12.4219 3.8281 184 70 0
3.8281 -12.1094 4.1406 200 54 0
4.1406 -12.1094 4.1406 200 54 0
4.2969 -12.1094 4.1406 200 54 0
4.4531 -12.4219 3.8281 184 70 0
4.6094 -12.2656 3.8281 184 70 0
4.6094 -12.4219 3.9844 192 62 0
3.8281 -11.6406 3.8281 184 70 0
3.8281 -11.4844 3.8281 184 70 0
4.6094 -11.7969 3.8281 184 70 0
4.6094 -11.6406 3.8281 184 70 0
4.7656 -11.4844 3.8281 184 70 0
5.8594 -14.9219 1.7969 82 172 0
5.0781 -13.2031 1.6406 74 180 0
5.2344 -13.2031 1.6406 74 180 0
5.0781 -12.5781 1.4844 66 188 0
5.3906 -13.0469 1.6406 74 180 0
5.5469 -12.8906 1.7969 82 172 0
5.2344 -12.5781 1.6406 74 180 0
5.3906 -12.4219 1.6406 74 180 0
5.3906 -12.2656 1.6406 74 180 0
5.5469 -12.1094 1.6406 74 180 0
5.7031 -12.4219 1.7969 82 172 0
5.8594 -12.4219 1.7969 82 172 0
6.0156 -12.2656 1.7969 82 172 0
5.7031 -11.9531 1.7969 82 172 0
5.8594 -11.7969 1.7969 82 172 0
5.8594 -11.6406 1.7969 82 172 0
6.0156 -11.4844 1.7969 82 172 0
5.0781 -12.1094 1.9531 90 164 0
5.0781 -11.9531 1.9531 90 164 0
6.0156 -12.1094 1.9531 90 164 0
6.1719 -11.9531 1.9531 90 164 0
5.2344 -11.7969 1.9531 90 164 0
5.3906 -11.6406 1.9531 90 164 0
5.5469 -11.4844 1.9531 90 164 0
5.5469 -11.3281 2.1094 98 156 0
6.0156 -11.3281 1.9531 90 164 0
6.3281 -11.7969 1.9531 90 164 0
6.3281 -11.6406 1.9531 90 164 0
6.4844 -11.4844 2.1094 98 156 0
6.6406 -11.3281 2.1094 98 156 0
6.1719 -11.1719 1.9531 90 164 0
6.3281 -11.0156 1.9531 90 164 0
6.6406 -11.1719 2.1094 98 156 0
6.7969 -11.0156 2.1094 98 156 0
6.4844 -10.8594 1.9531 90 164 0
6.9531 -10.8594 2.1094 98 156 0
6.9531 -10.7031 2.2656 105 149 0
7.1094 -10.5469 2.2656 105 149 0
5.2344 -13.9844 4.9219 239 15 0
6.4844 -13.9844 4.9219 239 15 0
5.0781 -12.8906 4.2969 207 47 0
5.2344 -12.8906 4.2969 207 47 0
5.3906 -12.8906 4.2969 207 47 0
6.4844 -13.0469 4.7656 231 23 0
6.7969 -13.0469 4.9219 239 15 0
5.2344 -12.1094 3.9844 192 62 0
5.3906 -12.1094 4.1406 200 54 0
5.3906 -11.9531 4.1406 200 54 0
5.0781 -11.4844 3.9844 192 62 0
5.7031 -11.7969 4.2969 207 47 0
6.6406 -12.4219 4.7656 231 23 0
7.1094 -12.1094 4.9219 239 15 0
7.2656 -11.9531 4.9219 239 15 0
5.2344 -11.1719 3.9844 192 62 0
5.2344 -11.0156 3.9844 192 62 0
0.0781 -4.9219 -1.9531 0 149 105
0.2344 -4.9219 -1.9531 0 149 105
0.0781 -4.9219 -1.7969 0 156 98
0.2344 -4.9219 -1.7969 0 156 98
0.0781 -4.7656 -1.7969 0 156 98
0.2344 -4.7656 -1.7969 0 156 98
0.3906 -4.9219 -1.7969 0 156 98
0.5469 -4.9219 -1.7969 0 156 98
0.3906 -4.7656 -1.7969 0 156 98
0.3906 -4.7656 -1.6406 0 164 90
0.5469 -4.7656 -1.6406 0 164 90
0.0781 -4.6094 -1.7969 0 156 98
0.2344 -4.6094 -1.7969 0 156 98
0.2344 -4.4531 -1.7969 0 156 98
0.5469 -4.6094 -1.6406 0 164 90
0.7031 -4.9219 -1.7969 0 156 98
0.8594 -4.9219 -1.7969 0 156 98
0.7031 -4.7656 -1.7969 0 156 98
0.7031 -4.9219 -1.6406 0 164 90
0.8594 -4.9219 -1.6406 0 164 90
0.7031 -4.7656 -1.6406 0 164 90
0.8594 -4.7656 -1.6406 0 164 90
1.0156 -4.9219 -1.6406 0 164 90
1.1719 -4.9219 -1.6406 0 164 90
1.0156 -4.7656 -1.6406 0 164 90
1.1719 -4.7656 -1.6406 0 164 90
0.8594 -4.6094 -1.6406 0 164 90
0.7031 -4.7656 -1.4844 0 172 82
1.0156 -4.7656 -1.4844 0 172 82
1.1719 -4.7656 -1.4844 0 172 82
0.8594 -4.6094 -1.4844 0 172 82
1.0156 -4.6094 -1.4844 0 172 82
1.0156 -4.4531 -1.4844 0 172 82
1.1719 -4.4531 -1.4844 0 172 82
1.3281 -4.9219 -1.6406 0 164 90
1.4844 -4.9219 -1.4844 0 172 82
1.3281 -4.7656 -1.4844 0 172 82
1.4844 -4.7656 -1.4844 0 172 82
1.6406 -4.9219 -1.4844 0 172 82
1.6406 -4.7656 -1.4844 0 172 82
1.7969 -4.7656 -1.4844 0 172 82
1.6406 -4.7656 -1.3281 0 180 74
1.7969 -4.7656 -1.3281 0 180 74
1.3281 -4.6094 -1.3281 0 180 74
1.4844 -4.6094 -1.3281 0 180 74
1.6406 -4.6094 -1.3281 0 180 74
1.7969 -4.6094 -1.3281 0 180 74
1.9531 -4.7656 -1.3281 0 180 74
2.1094 -4.7656 -1.3281 0 180 74
1.9531 -4.6094 -1.3281 0 180 74
2.1094 -4.6094 -1.3281 0 180 74
1.7969 -4.4531 -1.1719 0 188 66
1.9531 -4.6094 -1.1719 0 188 66
2.1094 -4.6094 -1.1719 0 188 66
1.9531 -4.4531 -1.1719 0 188 66
2.2656 -4.6094 -1.1719 0 188 66
2.2656 -4.4531 -1.1719 0 188 66
2.4219 -4.4531 -1.1719 0 188 66
2.4219 -4.4531 -1.0156 0 196 58
2.5781 -4.6094 -1.1719 0 188 66
2.7344 -4.6094 -1.1719 0 188 66
2.7344 -4.4531 -1.1719 0 188 66
2.7344 -4.6094 -1.0156 0 196 58
2.7344 -4.4531 -1.0156 0 196 58
2.8906 -4.4531 -1.0156 0 196 58
3.3594 -4.4531 -1.0156 0 196 58
2.5781 -4.2969 -1.0156 0 196 58
2.8906 -4.2969 -1.0156 0 196 58
3.0469 -4.2969 -1.0156 0 196 58
3.0469 -4.1406 -1.0156 0 196 58
3.0469 -4.2969 -0.8594 0 204 50
3.3594 -4.2969 -1.0156 0 196 58
3.2031 -4.2969 -0.8594 0 204 50
3.2031 -4.1406 -0.8594 0 204 50
3.5156 -4.2969 -0.8594 0 204 50
3.5156 -4.1406 -0.8594 0 204 50
3.6719 -4.1406 -0.8594 0 204 50
3.6719 -3.9844 -0.8594 0 204 50
3.8281 -3.9844 -0.7031 0 211 43
0.2344 -0.7031 -0.3906 0 227 27
0.0781 -0.5469 -0.3906 0 227 27
0.0781 -0.3906 -0.3906 0 227 27
5.7031 -14.7656 5.2344 255 0 0
6.9531 -14.4531 5.2344 255 0 0
6.9531 -13.8281 5.0781 247 7 0
-0.5469 0.0781 -0.5469 0 219 35
-0.3906 0.0781 -0.5469 0 219 35
-0.5469 0.2344 -0.5469 0 219 35
-0.3906 0.2344 -0.5469 0 219 35
-0.5469 0.3906 -0.5469 0 219 35
