ply
format ascii 1.0
comment OctoMap 3D export - Moose Robot
comment Resolution: 0.100 m
element vertex 1485
property float x
property float y
property float z
property uchar red
property uchar green
property uchar blue
end_header
-8.5156 6.9531 1.6406 0 134 120
-8.5156 7.1094 1.6406 0 134 120
-8.3594 6.9531 1.6406 0 134 120
-8.0469 6.9531 1.4844 0 128 126
-7.8906 6.9531 1.4844 0 128 126
-7.5781 7.4219 1.4844 0 128 126
-8.0469 6.9531 1.6406 0 134 120
-7.7344 7.4219 1.6406 0 134 120
-7.4219 5.2344 0.8594 0 105 149
-7.2656 5.2344 0.8594 0 105 149
-7.2656 5.3906 0.8594 0 105 149
-7.1094 5.3906 0.8594 0 105 149
-6.9531 5.3906 0.8594 0 105 149
-7.4219 5.5469 1.0156 0 111 143
-7.2656 5.5469 1.0156 0 111 143
-7.4219 5.3906 1.1719 0 117 137
-7.2656 5.3906 1.1719 0 117 137
-7.4219 5.5469 1.1719 0 117 137
-7.2656 5.5469 1.1719 0 117 137
-7.1094 5.3906 1.0156 0 111 143
-7.1094 5.5469 1.0156 0 111 143
-6.9531 5.5469 1.0156 0 111 143
-7.1094 5.5469 1.1719 0 117 137
-6.6406 5.2344 0.8594 0 105 149
-6.3281 5.0781 0.8594 0 105 149
-6.7969 5.3906 0.8594 0 105 149
-6.6406 5.3906 0.8594 0 105 149
-6.6406 5.5469 0.8594 0 105 149
-6.4844 5.3906 0.8594 0 105 149
-6.3281 5.3906 0.8594 0 105 149
-6.3281 5.5469 0.8594 0 105 149
-6.6406 5.3906 1.0156 0 111 143
-6.7969 5.5469 1.0156 0 111 143
-6.6406 5.5469 1.0156 0 111 143
-6.4844 5.3906 1.0156 0 111 143
-6.3281 5.3906 1.0156 0 111 143
-6.4844 5.5469 1.0156 0 111 143
-6.3281 5.5469 1.0156 0 111 143
-7.4219 5.7031 1.0156 0 111 143
-7.2656 5.7031 1.0156 0 111 143
-7.4219 5.7031 1.1719 0 117 137
-7.2656 5.7031 1.1719 0 117 137
-7.4219 5.8594 1.1719 0 117 137
-7.2656 5.8594 1.1719 0 117 137
-7.1094 5.7031 1.0156 0 111 143
-6.9531 5.7031 1.0156 0 111 143
-7.1094 5.7031 1.1719 0 117 137
-6.9531 5.7031 1.1719 0 117 137
-6.9531 5.8594 1.1719 0 117 137
-7.4219 6.0156 1.1719 0 117 137
-7.2656 6.0156 1.1719 0 117 137
-7.1094 6.0156 1.1719 0 117 137
-6.9531 6.0156 1.1719 0 117 137
-7.1094 6.1719 1.1719 0 117 137
-6.9531 6.1719 1.1719 0 117 137
-6.7969 5.7031 1.0156 0 111 143
-6.6406 5.7031 1.0156 0 111 143
-6.6406 5.7031 1.1719 0 117 137
-6.4844 5.7031 1.0156 0 111 143
-6.3281 5.7031 1.0156 0 111 143
-6.4844 5.8594 1.0156 0 111 143
-6.7969 6.0156 1.1719 0 117 137
-6.6406 6.0156 1.1719 0 117 137
-6.7969 6.1719 1.1719 0 117 137
-6.6406 6.1719 1.1719 0 117 137
-6.4844 6.0156 1.1719 0 117 137
-6.3281 6.1719 1.1719 0 117 137
-5.8594 5.2344 0.8594 0 105 149
-5.7031 5.2344 0.8594 0 105 149
-6.0156 5.3906 0.8594 0 105 149
-6.1719 5.5469 0.8594 0 105 149
-5.7031 5.3906 0.8594 0 105 149
-5.8594 5.5469 0.8594 0 105 149
-5.7031 5.5469 0.8594 0 105 149
-6.1719 5.3906 1.0156 0 111 143
-6.1719 5.5469 1.0156 0 111 143
-6.0156 5.5469 1.0156 0 111 143
-5.8594 5.5469 1.0156 0 111 143
-5.5469 5.0781 0.7031 0 99 155
-5.3906 5.2344 0.7031 0 99 155
-5.2344 5.0781 0.7031 0 99 155
-5.2344 5.2344 0.7031 0 99 155
-5.0781 5.2344 0.8594 0 105 149
-5.5469 5.5469 0.8594 0 105 149
-5.3906 5.5469 0.8594 0 105 149
-5.2344 5.5469 0.8594 0 105 149
-6.0156 5.7031 0.8594 0 105 149
-5.8594 5.7031 0.8594 0 105 149
-5.7031 5.7031 0.8594 0 105 149
-6.0156 5.7031 1.0156 0 111 143
-6.1719 5.8594 1.0156 0 111 143
-5.8594 5.7031 1.0156 0 111 143
-5.7031 5.7031 1.0156 0 111 143
-5.8594 5.8594 1.0156 0 111 143
-5.7031 5.8594 1.0156 0 111 143
-6.1719 6.0156 1.0156 0 111 143
-6.0156 6.0156 1.0156 0 111 143
-6.0156 6.1719 1.0156 0 111 143
-6.1719 6.1719 1.1719 0 117 137
-6.0156 6.1719 1.1719 0 117 137
-5.8594 6.0156 1.0156 0 111 143
-5.7031 6.0156 1.0156 0 111 143
-5.8594 6.1719 1.0156 0 111 143
-5.7031 6.1719 1.0156 0 111 143
-5.5469 5.7031 0.8594 0 105 149
-5.3906 5.7031 0.8594 0 105 149
-5.3906 5.8594 0.8594 0 105 149
-5.2344 5.7031 0.8594 0 105 149
-5.2344 5.8594 0.8594 0 105 149
-5.0781 5.8594 0.8594 0 105 149
-5.3906 6.0156 0.8594 0 105 149
-5.2344 6.0156 0.8594 0 105 149
-5.0781 6.0156 0.8594 0 105 149
-5.0781 6.1719 0.8594 0 105 149
-5.5469 5.8594 1.0156 0 111 143
-5.3906 5.8594 1.0156 0 111 143
-5.3906 6.0156 1.0156 0 111 143
-5.5469 6.1719 1.0156 0 111 143
-5.0781 6.0156 1.0156 0 111 143
-5.2344 6.1719 1.0156 0 111 143
-6.6406 6.3281 1.1719 0 117 137
-6.4844 6.3281 1.1719 0 117 137
-6.3281 6.3281 1.1719 0 117 137
-6.4844 6.6406 1.1719 0 117 137
-6.3281 6.6406 1.1719 0 117 137
-6.1719 6.3281 1.1719 0 117 137
-6.1719 6.4844 1.1719 0 117 137
-5.7031 6.4844 1.1719 0 117 137
-6.1719 6.6406 1.1719 0 117 137
-6.0156 6.6406 1.1719 0 117 137
-5.8594 6.6406 1.1719 0 117 137
-5.8594 6.7969 1.1719 0 117 137
-5.7031 6.7969 1.1719 0 117 137
-5.5469 6.3281 1.0156 0 111 143
-5.3906 6.3281 1.0156 0 111 143
-5.5469 6.3281 1.1719 0 117 137
-5.5469 6.4844 1.1719 0 117 137
-5.2344 6.3281 1.0156 0 111 143
-5.0781 6.3281 1.0156 0 111 143
-5.0781 6.4844 1.0156 0 111 143
-5.5469 6.6406 1.1719 0 117 137
-5.3906 6.6406 1.1719 0 117 137
-5.5469 6.7969 1.1719 0 117 137
-5.3906 6.7969 1.1719 0 117 137
-5.2344 6.6406 1.0156 0 111 143
-5.0781 6.6406 1.0156 0 111 143
-5.2344 6.7969 1.0156 0 111 143
-5.0781 6.7969 1.0156 0 111 143
-5.2344 6.6406 1.1719 0 117 137
-5.2344 6.7969 1.1719 0 117 137
-5.0781 6.7969 1.1719 0 117 137
-5.0781 6.9531 1.1719 0 117 137
-7.4219 6.1719 1.3281 0 123 131
-7.4219 6.3281 1.3281 0 123 131
-7.2656 6.3281 1.3281 0 123 131
-7.4219 6.4844 1.3281 0 123 131
-7.2656 6.4844 1.3281 0 123 131
-7.4219 6.4844 1.4844 0 128 126
-7.1094 6.3281 1.3281 0 123 131
-7.1094 6.4844 1.3281 0 123 131
-6.9531 6.4844 1.3281 0 123 131
-7.1094 6.4844 1.4844 0 128 126
-7.2656 6.6406 1.4844 0 128 126
-7.1094 6.6406 1.4844 0 128 126
-6.9531 6.6406 1.4844 0 128 126
-6.9531 6.7969 1.4844 0 128 126
-6.7969 6.4844 1.3281 0 123 131
-6.6406 6.4844 1.3281 0 123 131
-6.7969 6.4844 1.4844 0 128 126
-6.7969 6.6406 1.3281 0 123 131
-6.6406 6.6406 1.3281 0 123 131
-6.7969 6.7969 1.4844 0 128 126
-6.6406 6.7969 1.4844 0 128 126
-6.4844 6.6406 1.3281 0 123 131
-6.3281 6.6406 1.3281 0 123 131
-7.2656 7.2656 1.4844 0 128 126
-7.1094 7.2656 1.4844 0 128 126
-6.9531 7.2656 1.4844 0 128 126
-6.4844 6.9531 1.4844 0 128 126
-6.3281 6.9531 1.4844 0 128 126
-6.6406 7.2656 1.4844 0 128 126
-6.7969 7.4219 1.4844 0 128 126
-6.6406 7.4219 1.4844 0 128 126
-6.4844 7.2656 1.4844 0 128 126
-6.3281 7.2656 1.4844 0 128 126
-6.4844 7.4219 1.4844 0 128 126
-6.1719 6.6406 1.3281 0 123 131
-6.0156 6.7969 1.3281 0 123 131
-5.8594 6.7969 1.3281 0 123 131
-5.7031 6.7969 1.3281 0 123 131
-5.3906 6.7969 1.3281 0 123 131
-5.2344 6.7969 1.3281 0 123 131
-6.0156 6.9531 1.3281 0 123 131
-5.7031 6.9531 1.3281 0 123 131
-6.1719 7.2656 1.4844 0 128 126
-6.0156 7.2656 1.4844 0 128 126
-5.7031 7.4219 1.3281 0 123 131
-5.8594 7.4219 1.4844 0 128 126
-5.0781 7.1094 1.3281 0 123 131
-5.5469 7.4219 1.3281 0 123 131
-9.9219 7.5781 1.9531 0 146 108
-9.1406 8.0469 1.9531 0 146 108
-8.8281 8.0469 1.9531 0 146 108
-9.4531 8.2031 1.9531 0 146 108
-8.3594 8.0469 1.7969 0 140 114
-8.0469 7.8906 1.7969 0 140 114
-7.8906 7.8906 1.7969 0 140 114
-7.5781 7.8906 1.7969 0 140 114
-8.6719 8.0469 1.9531 0 146 108
-7.4219 7.8906 1.7969 0 140 114
-7.2656 7.8906 1.7969 0 140 114
-7.1094 7.8906 1.6406 0 134 120
-6.9531 7.8906 1.6406 0 134 120
-6.4844 7.5781 1.4844 0 128 126
-6.3281 7.5781 1.4844 0 128 126
-6.7969 8.0469 1.6406 0 134 120
-6.6406 8.0469 1.6406 0 134 120
-6.6406 8.2031 1.6406 0 134 120
-6.4844 8.2031 1.6406 0 134 120
-6.3281 8.2031 1.6406 0 134 120
-6.1719 7.5781 1.4844 0 128 126
-6.0156 7.5781 1.4844 0 128 126
-6.0156 7.7344 1.4844 0 128 126
-5.8594 7.7344 1.4844 0 128 126
-5.7031 7.7344 1.4844 0 128 126
-5.3906 7.5781 1.3281 0 123 131
-5.5469 7.7344 1.4844 0 128 126
-5.2344 7.5781 1.3281 0 123 131
-5.0781 7.5781 1.3281 0 123 131
-5.2344 7.7344 1.3281 0 123 131
-5.5469 7.8906 1.4844 0 128 126
-5.3906 7.8906 1.4844 0 128 126
-5.0781 7.8906 1.3281 0 123 131
-5.2344 7.8906 1.4844 0 128 126
-5.2344 8.0469 1.4844 0 128 126
-5.0781 8.0469 1.4844 0 128 126
-6.1719 8.3594 1.6406 0 134 120
-6.0156 8.3594 1.6406 0 134 120
-6.0156 8.5156 1.6406 0 134 120
-5.8594 8.5156 1.6406 0 134 120
-5.0781 8.2031 1.4844 0 128 126
-9.9219 5.0781 3.8281 0 216 38
-9.7656 5.0781 3.8281 0 216 38
-9.6094 5.0781 3.8281 0 216 38
-9.4531 5.0781 3.8281 0 216 38
-9.6094 5.2344 3.8281 0 216 38
-9.4531 5.2344 3.9844 0 222 32
-9.7656 5.5469 3.8281 0 216 38
-9.6094 5.5469 3.9844 0 222 32
-9.4531 5.5469 3.9844 0 222 32
-9.2969 5.0781 3.8281 0 216 38
-9.1406 5.0781 3.8281 0 216 38
-9.2969 5.2344 3.8281 0 216 38
-9.1406 5.2344 3.8281 0 216 38
-9.9219 5.8594 4.1406 0 228 26
-9.7656 5.8594 4.2969 0 234 20
-8.6719 5.0781 3.8281 0 216 38
-8.2031 5.2344 4.2969 0 234 20
-8.2031 5.3906 4.2969 0 234 20
-8.2031 5.5469 4.2969 0 234 20
-8.0469 5.2344 4.2969 0 234 20
-7.8906 5.2344 4.2969 0 234 20
-8.0469 5.3906 4.2969 0 234 20
-7.8906 5.3906 4.2969 0 234 20
-8.0469 5.5469 4.2969 0 234 20
-7.5781 5.3906 4.2969 0 234 20
-7.7344 5.5469 4.2969 0 234 20
-7.5781 5.5469 4.2969 0 234 20
-8.2031 5.8594 4.2969 0 234 20
-8.2031 6.0156 4.2969 0 234 20
-8.2031 6.1719 4.2969 0 234 20
-8.0469 5.7031 4.2969 0 234 20
-7.8906 5.7031 4.2969 0 234 20
-8.0469 5.8594 4.2969 0 234 20
-7.7344 5.7031 4.2969 0 234 20
-7.5781 5.8594 4.2969 0 234 20
-8.0469 6.0156 4.2969 0 234 20
-7.8906 6.0156 4.2969 0 234 20
-7.8906 6.1719 4.2969 0 234 20
-7.7344 6.0156 4.2969 0 234 20
-7.5781 6.0156 4.2969 0 234 20
-7.8906 6.4844 4.1406 0 228 26
-7.7344 6.3281 4.2969 0 234 20
-7.7344 6.4844 4.2969 0 234 20
-7.4219 5.5469 4.1406 0 228 26
-7.4219 5.3906 4.2969 0 234 20
-7.4219 5.5469 4.2969 0 234 20
-7.4219 5.7031 4.2969 0 234 20
-7.4219 5.8594 4.2969 0 234 20
-4.9219 5.2344 0.7031 0 99 155
-4.7656 5.2344 0.7031 0 99 155
-4.4531 5.0781 0.7031 0 99 155
-4.7656 5.3906 0.7031 0 99 155
-4.6094 5.5469 0.7031 0 99 155
-4.4531 5.5469 0.7031 0 99 155
-4.1406 5.0781 0.7031 0 99 155
-4.2969 5.2344 0.7031 0 99 155
-3.9844 5.0781 0.7031 0 99 155
-3.9844 5.2344 0.7031 0 99 155
-3.8281 5.2344 0.7031 0 99 155
-3.9844 5.0781 0.8594 0 105 149
-3.8281 5.0781 0.8594 0 105 149
-3.9844 5.2344 0.8594 0 105 149
-3.8281 5.2344 0.8594 0 105 149
-4.2969 5.3906 0.7031 0 99 155
-4.1406 5.5469 0.7031 0 99 155
-4.2969 5.3906 0.8594 0 105 149
-3.9844 5.3906 0.7031 0 99 155
-3.8281 5.3906 0.7031 0 99 155
-3.8281 5.5469 0.7031 0 99 155
-3.8281 5.3906 0.8594 0 105 149
-3.8281 5.5469 0.8594 0 105 149
-4.9219 5.7031 0.8594 0 105 149
-4.9219 5.8594 0.8594 0 105 149
-4.7656 5.8594 0.8594 0 105 149
-4.4531 5.7031 0.7031 0 99 155
-4.6094 5.8594 0.8594 0 105 149
-4.4531 5.8594 0.8594 0 105 149
-4.9219 6.0156 0.8594 0 105 149
-4.7656 6.1719 0.8594 0 105 149
-4.4531 6.0156 0.8594 0 105 149
-4.6094 6.1719 0.8594 0 105 149
-4.4531 6.1719 0.8594 0 105 149
-4.9219 6.1719 1.0156 0 111 143
-4.2969 5.8594 0.8594 0 105 149
-3.9844 5.7031 0.7031 0 99 155
-3.9844 5.7031 0.8594 0 105 149
-3.8281 5.8594 0.8594 0 105 149
-4.2969 6.0156 0.8594 0 105 149
-4.1406 6.0156 0.8594 0 105 149
-4.2969 6.1719 0.8594 0 105 149
-4.1406 6.1719 0.8594 0 105 149
-3.8281 6.0156 0.8594 0 105 149
-3.6719 5.3906 0.8594 0 105 149
-3.6719 5.5469 0.8594 0 105 149
-3.6719 5.7031 0.7031 0 99 155
-3.6719 5.8594 0.7031 0 99 155
-3.6719 5.7031 0.8594 0 105 149
-3.5156 5.7031 0.8594 0 105 149
-3.6719 5.8594 0.8594 0 105 149
-3.5156 5.8594 0.8594 0 105 149
-3.3594 5.8594 0.8594 0 105 149
-3.6719 6.0156 0.7031 0 99 155
-3.5156 6.0156 0.7031 0 99 155
-3.6719 6.0156 0.8594 0 105 149
-3.5156 6.0156 0.8594 0 105 149
-3.6719 6.1719 0.8594 0 105 149
-3.5156 6.1719 0.8594 0 105 149
-3.3594 6.0156 0.7031 0 99 155
-3.2031 6.1719 0.7031 0 99 155
-3.3594 6.0156 0.8594 0 105 149
-3.3594 6.1719 0.8594 0 105 149
-3.2031 6.1719 0.8594 0 105 149
-3.5156 6.1719 1.0156 0 111 143
-4.7656 6.3281 0.8594 0 105 149
-4.4531 6.3281 0.8594 0 105 149
-4.6094 6.4844 0.8594 0 105 149
-4.4531 6.4844 0.8594 0 105 149
-4.9219 6.3281 1.0156 0 111 143
-4.7656 6.4844 1.0156 0 111 143
-4.7656 6.6406 1.0156 0 111 143
-4.9219 6.7969 1.0156 0 111 143
-4.9219 6.6406 1.1719 0 117 137
-4.7656 6.7969 1.1719 0 117 137
-4.6094 6.6406 1.0156 0 111 143
-4.2969 6.3281 0.8594 0 105 149
-4.1406 6.3281 0.8594 0 105 149
-4.2969 6.4844 0.8594 0 105 149
-4.1406 6.4844 0.8594 0 105 149
-3.9844 6.3281 0.8594 0 105 149
-3.9844 6.4844 0.8594 0 105 149
-3.8281 6.4844 0.8594 0 105 149
-4.2969 6.6406 0.8594 0 105 149
-4.1406 6.6406 0.8594 0 105 149
-3.9844 6.6406 0.8594 0 105 149
-3.8281 6.6406 0.8594 0 105 149
-3.9844 6.7969 0.8594 0 105 149
-3.8281 6.7969 0.8594 0 105 149
-4.1406 6.6406 1.0156 0 111 143
-4.9219 6.9531 1.0156 0 111 143
-4.7656 6.9531 1.0156 0 111 143
-4.9219 6.9531 1.1719 0 117 137
-4.7656 6.9531 1.1719 0 117 137
-4.9219 7.1094 1.1719 0 117 137
-4.7656 7.1094 1.1719 0 117 137
-4.6094 6.9531 1.0156 0 111 143
-4.6094 7.1094 1.0156 0 111 143
-4.6094 6.9531 1.1719 0 117 137
-4.4531 6.9531 1.1719 0 117 137
-4.6094 7.1094 1.1719 0 117 137
-4.9219 7.2656 1.1719 0 117 137
-4.7656 7.2656 1.1719 0 117 137
-4.4531 7.2656 1.0156 0 111 143
-4.6094 7.2656 1.1719 0 117 137
-4.4531 7.2656 1.1719 0 117 137
-4.6094 7.4219 1.1719 0 117 137
-4.4531 7.4219 1.1719 0 117 137
-3.8281 6.9531 0.8594 0 105 149
-4.2969 7.1094 1.0156 0 111 143
-3.9844 6.9531 1.0156 0 111 143
-3.9844 7.1094 1.0156 0 111 143
-3.8281 7.1094 1.0156 0 111 143
-4.2969 7.2656 1.0156 0 111 143
-4.2969 7.4219 1.0156 0 111 143
-4.1406 7.4219 1.0156 0 111 143
-4.2969 7.2656 1.1719 0 117 137
-4.1406 7.4219 1.1719 0 117 137
-3.9844 7.4219 1.0156 0 111 143
-3.6719 6.3281 0.8594 0 105 149
-3.5156 6.3281 0.8594 0 105 149
-3.5156 6.4844 0.8594 0 105 149
-3.2031 6.3281 0.7031 0 99 155
-3.3594 6.3281 0.8594 0 105 149
-3.2031 6.3281 0.8594 0 105 149
-3.3594 6.4844 0.8594 0 105 149
-3.2031 6.4844 0.8594 0 105 149
-3.6719 6.6406 0.8594 0 105 149
-3.5156 6.6406 0.8594 0 105 149
-3.6719 6.7969 0.8594 0 105 149
-3.5156 6.7969 0.8594 0 105 149
-3.3594 6.6406 0.8594 0 105 149
-3.2031 6.6406 0.8594 0 105 149
-3.3594 6.7969 0.8594 0 105 149
-3.2031 6.7969 0.8594 0 105 149
-3.3594 6.4844 1.0156 0 111 143
-3.2031 6.4844 1.0156 0 111 143
-3.3594 6.7969 1.0156 0 111 143
-2.8906 6.4844 0.7031 0 99 155
-3.0469 6.4844 0.8594 0 105 149
-2.5781 6.4844 0.7031 0 99 155
-3.0469 6.6406 0.8594 0 105 149
-3.0469 6.7969 0.8594 0 105 149
-2.8906 6.7969 0.8594 0 105 149
-3.0469 6.6406 1.0156 0 111 143
-3.6719 6.9531 0.8594 0 105 149
-3.5156 7.1094 0.8594 0 105 149
-3.3594 6.9531 0.8594 0 105 149
-3.2031 6.9531 0.8594 0 105 149
-3.3594 7.1094 0.8594 0 105 149
-3.3594 7.2656 0.8594 0 105 149
-3.2031 7.4219 0.8594 0 105 149
-3.5156 7.1094 1.0156 0 111 143
-3.2031 7.1094 1.1719 0 117 137
-3.5156 7.2656 1.0156 0 111 143
-3.6719 7.4219 1.0156 0 111 143
-3.5156 7.4219 1.0156 0 111 143
-3.2031 7.4219 1.1719 0 117 137
-3.0469 6.9531 0.8594 0 105 149
-2.8906 6.9531 0.8594 0 105 149
-3.0469 7.1094 0.8594 0 105 149
-2.7344 7.1094 0.8594 0 105 149
-3.0469 7.2656 0.8594 0 105 149
-2.8906 7.4219 0.8594 0 105 149
-2.7344 7.4219 0.8594 0 105 149
-2.8906 6.9531 1.0156 0 111 143
-2.8906 7.1094 1.0156 0 111 143
-3.0469 7.2656 1.0156 0 111 143
-3.0469 7.2656 1.1719 0 117 137
-2.7344 7.2656 1.0156 0 111 143
-2.7344 7.4219 1.0156 0 111 143
-4.9219 6.9531 1.3281 0 123 131
-1.9531 7.4219 0.8594 0 105 149
-2.1094 7.4219 1.0156 0 111 143
-4.9219 7.5781 1.1719 0 117 137
-4.7656 7.5781 1.1719 0 117 137
-4.7656 7.7344 1.1719 0 117 137
-4.6094 7.5781 1.1719 0 117 137
-4.4531 7.5781 1.1719 0 117 137
-4.4531 7.7344 1.1719 0 117 137
-4.9219 7.8906 1.1719 0 117 137
-4.7656 7.8906 1.1719 0 117 137
-4.6094 7.8906 1.1719 0 117 137
-4.4531 7.8906 1.1719 0 117 137
-4.6094 8.0469 1.1719 0 117 137
-4.4531 8.0469 1.1719 0 117 137
-4.2969 7.5781 1.1719 0 117 137
-4.1406 7.5781 1.1719 0 117 137
-4.1406 7.7344 1.1719 0 117 137
-3.9844 7.5781 1.0156 0 111 143
-3.8281 7.5781 1.0156 0 111 143
-3.9844 7.5781 1.1719 0 117 137
-3.8281 7.7344 1.1719 0 117 137
-4.2969 8.0469 1.1719 0 117 137
-4.1406 8.0469 1.1719 0 117 137
-3.9844 7.8906 1.1719 0 117 137
-4.4531 8.2031 1.1719 0 117 137
-4.4531 8.3594 1.1719 0 117 137
-4.2969 8.2031 1.1719 0 117 137
-4.1406 8.2031 1.1719 0 117 137
-4.2969 8.3594 1.1719 0 117 137
-4.1406 8.3594 1.1719 0 117 137
-3.9844 8.2031 1.1719 0 117 137
-3.9844 8.3594 1.1719 0 117 137
-3.8281 8.3594 1.1719 0 117 137
-4.1406 8.5156 1.1719 0 117 137
-4.1406 8.6719 1.1719 0 117 137
-3.9844 8.5156 1.1719 0 117 137
-3.8281 8.5156 1.1719 0 117 137
-3.9844 8.6719 1.1719 0 117 137
-3.2031 7.5781 0.8594 0 105 149
-3.6719 7.7344 1.0156 0 111 143
-3.5156 7.7344 1.0156 0 111 143
-3.3594 7.5781 1.0156 0 111 143
-3.6719 7.8906 1.1719 0 117 137
-3.3594 7.8906 1.0156 0 111 143
-3.3594 8.0469 1.0156 0 111 143
-3.2031 8.0469 1.0156 0 111 143
-3.3594 8.0469 1.1719 0 117 137
-2.8906 7.5781 0.8594 0 105 149
-2.7344 7.5781 0.8594 0 105 149
-2.5781 7.5781 0.8594 0 105 149
-2.7344 7.7344 0.8594 0 105 149
-2.7344 7.8906 0.8594 0 105 149
-2.5781 7.8906 0.8594 0 105 149
-2.8906 7.5781 1.0156 0 111 143
-3.0469 7.7344 1.0156 0 111 143
-3.0469 7.5781 1.1719 0 117 137
-2.7344 7.7344 1.0156 0 111 143
-2.8906 7.8906 1.0156 0 111 143
-2.8906 7.8906 1.1719 0 117 137
-3.0469 8.0469 1.1719 0 117 137
-2.5781 7.8906 1.0156 0 111 143
-2.7344 8.0469 1.1719 0 117 137
-3.5156 8.2031 1.1719 0 117 137
-3.2031 8.2031 1.0156 0 111 143
-3.3594 8.3594 1.0156 0 111 143
-3.6719 8.5156 1.1719 0 117 137
-3.6719 8.6719 1.1719 0 117 137
-3.5156 8.6719 1.1719 0 117 137
-3.2031 8.5156 1.0156 0 111 143
-3.2031 8.6719 1.0156 0 111 143
-2.8906 8.3594 1.0156 0 111 143
-2.7344 8.2031 1.1719 0 117 137
-3.0469 8.6719 1.0156 0 111 143
-2.8906 8.6719 1.0156 0 111 143
-2.7344 8.5156 1.0156 0 111 143
-2.5781 8.6719 1.0156 0 111 143
-3.9844 8.8281 1.1719 0 117 137
-3.8281 8.8281 1.1719 0 117 137
-3.8281 8.9844 1.1719 0 117 137
-3.8281 9.1406 1.1719 0 117 137
-3.6719 8.8281 1.1719 0 117 137
-3.5156 8.8281 1.1719 0 117 137
-3.6719 8.9844 1.1719 0 117 137
-3.5156 8.9844 1.1719 0 117 137
-3.3594 8.9844 1.1719 0 117 137
-3.2031 8.9844 1.1719 0 117 137
-3.6719 9.1406 1.1719 0 117 137
-3.5156 9.1406 1.1719 0 117 137
-3.6719 9.2969 1.1719 0 117 137
-3.5156 9.2969 1.1719 0 117 137
-3.3594 9.1406 1.1719 0 117 137
-3.2031 9.1406 1.1719 0 117 137
-3.3594 9.2969 1.1719 0 117 137
-2.8906 8.8281 1.0156 0 111 143
-2.7344 8.8281 1.0156 0 111 143
-2.7344 8.9844 1.0156 0 111 143
-2.5781 8.9844 1.0156 0 111 143
-3.0469 9.1406 1.1719 0 117 137
-3.0469 9.2969 1.1719 0 117 137
-2.8906 9.2969 1.1719 0 117 137
-2.5781 9.1406 1.0156 0 111 143
-3.6719 9.4531 1.1719 0 117 137
-3.3594 9.4531 1.1719 0 117 137
-3.2031 9.4531 1.1719 0 117 137
-3.3594 9.6094 1.1719 0 117 137
-3.2031 9.6094 1.1719 0 117 137
-3.2031 9.7656 1.1719 0 117 137
-3.0469 9.4531 1.1719 0 117 137
-2.7344 9.4531 1.1719 0 117 137
-2.5781 9.4531 1.1719 0 117 137
-3.0469 9.7656 1.1719 0 117 137
-3.0469 9.9219 1.1719 0 117 137
-2.7344 9.9219 1.1719 0 117 137
-4.9219 7.5781 1.3281 0 123 131
-4.9219 7.8906 1.3281 0 123 131
-4.7656 7.8906 1.3281 0 123 131
-4.9219 8.0469 1.3281 0 123 131
-4.7656 8.0469 1.3281 0 123 131
-4.9219 8.0469 1.4844 0 128 126
-4.6094 8.0469 1.3281 0 123 131
-4.4531 8.0469 1.3281 0 123 131
-4.7656 8.2031 1.3281 0 123 131
-4.9219 8.2031 1.4844 0 128 126
-4.7656 8.2031 1.4844 0 128 126
-4.9219 8.3594 1.4844 0 128 126
-4.7656 8.3594 1.4844 0 128 126
-4.6094 8.2031 1.3281 0 123 131
-4.6094 8.3594 1.3281 0 123 131
-4.4531 8.3594 1.3281 0 123 131
-4.6094 8.5156 1.3281 0 123 131
-4.4531 8.5156 1.3281 0 123 131
-4.6094 8.5156 1.4844 0 128 126
-4.4531 8.5156 1.4844 0 128 126
-4.4531 8.6719 1.4844 0 128 126
-4.2969 8.2031 1.3281 0 123 131
-4.2969 8.3594 1.3281 0 123 131
-4.1406 8.3594 1.3281 0 123 131
-4.2969 8.5156 1.3281 0 123 131
-4.1406 8.5156 1.3281 0 123 131
-4.2969 8.6719 1.3281 0 123 131
-3.9844 8.5156 1.3281 0 123 131
-3.8281 8.6719 1.3281 0 123 131
-3.0469 8.0469 1.3281 0 123 131
-2.8906 8.0469 1.3281 0 123 131
-3.2031 8.5156 1.3281 0 123 131
-3.0469 8.5156 1.3281 0 123 131
-2.8906 8.5156 1.3281 0 123 131
-3.0469 8.6719 1.3281 0 123 131
-2.8906 8.6719 1.4844 0 128 126
-4.2969 8.8281 1.3281 0 123 131
-4.1406 8.9844 1.3281 0 123 131
-4.2969 8.8281 1.4844 0 128 126
-4.1406 8.9844 1.4844 0 128 126
-3.8281 8.8281 1.3281 0 123 131
-4.1406 9.1406 1.3281 0 123 131
-3.9844 9.1406 1.4844 0 128 126
-3.9844 9.2969 1.4844 0 128 126
-3.8281 9.2969 1.4844 0 128 126
-3.9844 9.4531 1.4844 0 128 126
-3.8281 9.4531 1.4844 0 128 126
-3.8281 9.6094 1.4844 0 128 126
-3.8281 9.7656 1.4844 0 128 126
-3.6719 8.8281 1.3281 0 123 131
-3.5156 8.8281 1.3281 0 123 131
-3.6719 8.9844 1.3281 0 123 131
-3.5156 9.1406 1.3281 0 123 131
-3.3594 9.1406 1.3281 0 123 131
-3.2031 9.1406 1.3281 0 123 131
-3.3594 9.2969 1.3281 0 123 131
-2.8906 8.9844 1.3281 0 123 131
-3.0469 8.9844 1.4844 0 128 126
-2.5781 8.8281 1.3281 0 123 131
-3.0469 9.1406 1.3281 0 123 131
-3.0469 9.2969 1.3281 0 123 131
-2.8906 9.1406 1.4844 0 128 126
-3.5156 9.6094 1.3281 0 123 131
-3.2031 9.4531 1.3281 0 123 131
-3.2031 9.6094 1.3281 0 123 131
-3.5156 9.7656 1.3281 0 123 131
-3.6719 9.9219 1.4844 0 128 126
-3.2031 9.7656 1.3281 0 123 131
-3.2031 9.9219 1.3281 0 123 131
-3.0469 9.4531 1.3281 0 123 131
-2.8906 9.4531 1.3281 0 123 131
-3.0469 9.6094 1.3281 0 123 131
-2.8906 9.6094 1.3281 0 123 131
-2.7344 9.6094 1.3281 0 123 131
-3.0469 9.7656 1.3281 0 123 131
-2.8906 9.7656 1.3281 0 123 131
-3.0469 9.9219 1.3281 0 123 131
-2.8906 9.9219 1.3281 0 123 131
-2.7344 9.7656 1.3281 0 123 131
-2.5781 9.9219 1.3281 0 123 131
-2.4219 7.8906 0.8594 0 105 149
-2.2656 7.8906 0.8594 0 105 149
-2.2656 7.7344 1.1719 0 117 137
-2.1094 7.5781 1.0156 0 111 143
-1.9531 7.7344 1.0156 0 111 143
-2.1094 7.5781 1.1719 0 117 137
-2.4219 8.0469 1.0156 0 111 143
-1.9531 7.8906 1.0156 0 111 143
-1.9531 8.0469 1.0156 0 111 143
-2.1094 7.8906 1.1719 0 117 137
-1.9531 7.8906 1.1719 0 117 137
-2.1094 8.0469 1.1719 0 117 137
-2.2656 8.2031 0.8594 0 105 149
-2.4219 8.3594 1.0156 0 111 143
-1.9531 8.2031 1.0156 0 111 143
-1.9531 8.5156 1.0156 0 111 143
-2.1094 8.6719 1.0156 0 111 143
-1.7969 8.3594 1.0156 0 111 143
-1.9531 8.8281 1.0156 0 111 143
-2.1094 8.9844 1.0156 0 111 143
-2.4219 9.1406 1.0156 0 111 143
-2.2656 9.1406 1.0156 0 111 143
-2.4219 9.2969 1.0156 0 111 143
-2.2656 9.2969 1.0156 0 111 143
-1.9531 9.1406 1.0156 0 111 143
-2.1094 9.2969 1.0156 0 111 143
-1.9531 9.1406 1.1719 0 117 137
-1.7969 8.8281 1.0156 0 111 143
-1.7969 8.9844 1.1719 0 117 137
-1.7969 9.1406 1.1719 0 117 137
-1.7969 9.2969 1.1719 0 117 137
-2.2656 9.6094 1.1719 0 117 137
-2.1094 9.4531 1.0156 0 111 143
-1.9531 9.4531 1.0156 0 111 143
-1.9531 9.6094 1.0156 0 111 143
-2.2656 9.9219 1.1719 0 117 137
-1.9531 9.7656 1.0156 0 111 143
-2.1094 9.9219 1.1719 0 117 137
-1.6406 9.4531 1.0156 0 111 143
-1.7969 9.7656 1.0156 0 111 143
-1.6406 9.7656 1.0156 0 111 143
-1.4844 9.9219 1.1719 0 117 137
-2.2656 8.3594 1.3281 0 123 131
-2.1094 8.3594 1.3281 0 123 131
-1.9531 8.5156 1.3281 0 123 131
-1.9531 8.8281 1.3281 0 123 131
-2.1094 9.2969 1.3281 0 123 131
-2.1094 9.2969 1.4844 0 128 126
-1.7969 9.2969 1.3281 0 123 131
-2.2656 9.4531 1.4844 0 128 126
-2.1094 9.4531 1.3281 0 123 131
-2.1094 9.4531 1.4844 0 128 126
-1.9531 9.7656 1.3281 0 123 131
-2.1094 9.7656 1.4844 0 128 126
-2.1094 9.9219 1.4844 0 128 126
-1.7969 9.6094 1.3281 0 123 131
-1.7969 9.7656 1.3281 0 123 131
-1.7969 9.9219 1.3281 0 123 131
-1.6406 9.9219 1.3281 0 123 131
-15.8594 10.3906 2.5781 0 170 85
-2.7344 10.2344 1.1719 0 117 137
-2.5781 10.2344 1.1719 0 117 137
-2.5781 10.3906 1.1719 0 117 137
-2.5781 10.5469 1.1719 0 117 137
-3.6719 10.0781 1.4844 0 128 126
-3.5156 10.2344 1.4844 0 128 126
-3.3594 10.0781 1.3281 0 123 131
-3.2031 10.0781 1.3281 0 123 131
-3.3594 10.2344 1.3281 0 123 131
-3.2031 10.2344 1.3281 0 123 131
-3.5156 10.3906 1.4844 0 128 126
-3.2031 10.3906 1.3281 0 123 131
-3.3594 10.5469 1.4844 0 128 126
-3.0469 10.0781 1.3281 0 123 131
-2.8906 10.2344 1.3281 0 123 131
-2.7344 10.0781 1.3281 0 123 131
-3.0469 10.3906 1.3281 0 123 131
-2.8906 10.3906 1.3281 0 123 131
-3.0469 10.5469 1.3281 0 123 131
-2.8906 10.5469 1.3281 0 123 131
-3.2031 11.0156 1.3281 0 123 131
-3.2031 11.1719 1.3281 0 123 131
-3.0469 10.7031 1.3281 0 123 131
-2.8906 10.7031 1.3281 0 123 131
-2.7344 10.7031 1.3281 0 123 131
-2.7344 10.8594 1.3281 0 123 131
-2.5781 10.8594 1.3281 0 123 131
-3.0469 11.0156 1.3281 0 123 131
-2.8906 11.1719 1.4844 0 128 126
-2.7344 11.0156 1.3281 0 123 131
-2.7344 11.1719 1.3281 0 123 131
-3.0469 11.3281 1.3281 0 123 131
-2.8906 11.4844 1.4844 0 128 126
-2.5781 11.4844 1.3281 0 123 131
-2.7344 11.3281 1.4844 0 128 126
-2.5781 11.4844 1.4844 0 128 126
-3.0469 11.6406 1.3281 0 123 131
-2.5781 11.7969 1.3281 0 123 131
-2.7344 11.7969 1.4844 0 128 126
-2.8906 11.9531 1.3281 0 123 131
-2.7344 12.1094 1.4844 0 128 126
-2.8906 12.2656 1.4844 0 128 126
-2.5781 12.4219 1.3281 0 123 131
-2.7344 12.4219 1.4844 0 128 126
-1.9531 10.0781 1.1719 0 117 137
-2.4219 10.3906 1.1719 0 117 137
-2.4219 10.5469 1.1719 0 117 137
-1.7969 10.2344 1.1719 0 117 137
-1.6406 10.5469 1.1719 0 117 137
-2.2656 10.7031 1.1719 0 117 137
-2.4219 10.8594 1.1719 0 117 137
-2.2656 10.8594 1.1719 0 117 137
-2.1094 10.8594 1.1719 0 117 137
-2.2656 11.0156 1.1719 0 117 137
-2.1094 11.0156 1.1719 0 117 137
-1.9531 11.0156 1.1719 0 117 137
-2.1094 11.1719 1.1719 0 117 137
-1.7969 10.7031 1.1719 0 117 137
-1.6406 10.8594 1.1719 0 117 137
-1.9531 11.3281 1.1719 0 117 137
-1.7969 11.3281 1.1719 0 117 137
-2.4219 10.0781 1.3281 0 123 131
-2.1094 10.0781 1.4844 0 128 126
-1.9531 10.2344 1.4844 0 128 126
-2.4219 10.5469 1.3281 0 123 131
-2.2656 10.5469 1.3281 0 123 131
-2.4219 10.3906 1.6406 0 134 120
-1.7969 10.0781 1.3281 0 123 131
-1.7969 10.3906 1.3281 0 123 131
-1.6406 10.5469 1.3281 0 123 131
-2.2656 10.8594 1.3281 0 123 131
-1.9531 10.7031 1.4844 0 128 126
-2.4219 11.1719 1.3281 0 123 131
-2.2656 11.1719 1.3281 0 123 131
-2.1094 11.0156 1.3281 0 123 131
-2.1094 11.1719 1.3281 0 123 131
-1.9531 11.1719 1.4844 0 128 126
-2.2656 10.7031 1.6406 0 134 120
-2.1094 11.1719 1.6406 0 134 120
-1.7969 10.8594 1.4844 0 128 126
-1.3281 10.8594 1.3281 0 123 131
-1.7969 11.0156 1.4844 0 128 126
-1.7969 11.1719 1.4844 0 128 126
-1.4844 11.0156 1.3281 0 123 131
-1.3281 11.1719 1.4844 0 128 126
-2.4219 11.3281 1.3281 0 123 131
-2.1094 11.3281 1.3281 0 123 131
-1.9531 11.3281 1.3281 0 123 131
-1.9531 11.4844 1.3281 0 123 131
-1.9531 11.4844 1.4844 0 128 126
-2.4219 11.7969 1.3281 0 123 131
-2.2656 11.7969 1.3281 0 123 131
-2.4219 11.6406 1.4844 0 128 126
-1.9531 11.6406 1.3281 0 123 131
-2.1094 11.7969 1.3281 0 123 131
-1.9531 11.7969 1.3281 0 123 131
-2.1094 11.7969 1.4844 0 128 126
-2.1094 11.4844 1.6406 0 134 120
-1.7969 11.3281 1.4844 0 128 126
-1.7969 11.6406 1.4844 0 128 126
-1.7969 11.7969 1.4844 0 128 126
-1.7969 11.7969 1.6406 0 134 120
-2.4219 12.1094 1.3281 0 123 131
-2.2656 12.1094 1.3281 0 123 131
-2.4219 11.9531 1.4844 0 128 126
-1.9531 11.9531 1.3281 0 123 131
-2.1094 11.9531 1.4844 0 128 126
-1.9531 12.1094 1.4844 0 128 126
-2.4219 12.4219 1.3281 0 123 131
-2.2656 12.2656 1.4844 0 128 126
-2.1094 12.4219 1.3281 0 123 131
-1.9531 12.2656 1.4844 0 128 126
-1.9531 11.9531 1.6406 0 134 120
-2.1094 12.1094 1.6406 0 134 120
-2.2656 12.4219 1.7969 0 140 114
-2.1094 12.4219 1.6406 0 134 120
-1.9531 12.4219 1.6406 0 134 120
-1.7969 11.9531 1.3281 0 123 131
-1.7969 12.1094 1.3281 0 123 131
-1.6406 11.9531 1.4844 0 128 126
-1.3281 11.9531 1.4844 0 128 126
-1.7969 12.2656 1.3281 0 123 131
-1.7969 12.4219 1.4844 0 128 126
-1.6406 12.4219 1.4844 0 128 126
-1.4844 12.4219 1.3281 0 123 131
-1.4844 11.9531 1.6406 0 134 120
-1.1719 11.7969 1.4844 0 128 126
-1.0156 12.1094 1.4844 0 128 126
-2.7344 12.7344 1.4844 0 128 126
-2.5781 12.7344 1.4844 0 128 126
-2.7344 13.0469 1.4844 0 128 126
-2.5781 13.6719 1.4844 0 128 126
-2.5781 13.2031 1.6406 0 134 120
-2.5781 14.2969 1.6406 0 134 120
-2.2656 12.5781 1.4844 0 128 126
-2.1094 12.7344 1.4844 0 128 126
-2.4219 13.0469 1.4844 0 128 126
-2.1094 12.8906 1.4844 0 128 126
-1.9531 12.8906 1.4844 0 128 126
-1.9531 13.0469 1.4844 0 128 126
-2.2656 13.0469 1.6406 0 134 120
-1.7969 12.5781 1.3281 0 123 131
-1.6406 12.5781 1.3281 0 123 131
-1.6406 12.7344 1.3281 0 123 131
-1.7969 12.5781 1.4844 0 128 126
-1.7969 12.7344 1.4844 0 128 126
-1.3281 12.5781 1.3281 0 123 131
-1.6406 13.0469 1.3281 0 123 131
-1.7969 13.0469 1.4844 0 128 126
-1.3281 13.0469 1.3281 0 123 131
-1.6406 12.7344 1.6406 0 134 120
-1.4844 12.5781 1.6406 0 134 120
-1.6406 12.8906 1.6406 0 134 120
-1.4844 13.0469 1.6406 0 134 120
-2.1094 13.3594 1.4844 0 128 126
-2.4219 13.5156 1.4844 0 128 126
-2.2656 13.3594 1.6406 0 134 120
-2.1094 13.2031 1.6406 0 134 120
-1.7969 13.2031 1.4844 0 128 126
-1.6406 13.2031 1.4844 0 128 126
-1.6406 13.3594 1.4844 0 128 126
-1.3281 13.3594 1.3281 0 123 131
-1.3281 13.2031 1.4844 0 128 126
-1.7969 13.5156 1.4844 0 128 126
-1.6406 13.5156 1.4844 0 128 126
-1.4844 13.5156 1.4844 0 128 126
-1.4844 13.6719 1.4844 0 128 126
-1.7969 13.5156 1.6406 0 134 120
-1.6406 13.6719 1.6406 0 134 120
-1.0156 12.5781 1.6406 0 134 120
-0.8594 13.2031 1.4844 0 128 126
-1.9531 13.8281 1.4844 0 128 126
-2.2656 14.1406 1.4844 0 128 126
-2.1094 14.1406 1.4844 0 128 126
-2.4219 13.8281 1.6406 0 134 120
-2.2656 13.9844 1.6406 0 134 120
-2.1094 13.8281 1.6406 0 134 120
-1.6406 13.8281 1.4844 0 128 126
-1.3281 13.8281 1.4844 0 128 126
-1.4844 14.1406 1.4844 0 128 126
-1.6406 13.8281 1.6406 0 134 120
-1.6406 13.9844 1.6406 0 134 120
-1.6406 13.8281 1.7969 0 140 114
-1.4844 13.8281 1.7969 0 140 114
-1.7969 14.1406 1.6406 0 134 120
-1.6406 14.1406 1.6406 0 134 120
-1.4844 14.1406 1.6406 0 134 120
-1.4844 14.1406 1.7969 0 140 114
-2.4219 14.6094 1.6406 0 134 120
-2.2656 14.6094 1.6406 0 134 120
-2.1094 14.6094 1.6406 0 134 120
-1.9531 14.6094 1.6406 0 134 120
-2.2656 14.9219 1.6406 0 134 120
-1.9531 14.9219 1.6406 0 134 120
-1.3281 14.4531 1.4844 0 128 126
-1.7969 14.6094 1.7969 0 140 114
-1.6406 14.6094 1.7969 0 140 114
-1.3281 14.4531 1.6406 0 134 120
-1.4844 14.6094 1.6406 0 134 120
-1.6406 14.7656 1.6406 0 134 120
-1.6406 14.9219 1.6406 0 134 120
-1.6406 14.9219 1.7969 0 140 114
-1.3281 14.7656 1.7969 0 140 114
-1.4844 14.9219 1.7969 0 140 114
-1.1719 14.6094 1.6406 0 134 120
-2.5781 15.0781 1.6406 0 134 120
-2.5781 15.7031 1.7969 0 140 114
-1.9531 15.2344 1.6406 0 134 120
-2.1094 15.2344 1.7969 0 140 114
-2.2656 15.3906 1.7969 0 140 114
-2.4219 15.5469 1.7969 0 140 114
-1.4844 15.0781 1.6406 0 134 120
-1.3281 15.0781 1.6406 0 134 120
-1.6406 15.5469 1.7969 0 140 114
-1.9531 15.7031 1.7969 0 140 114
-1.3281 15.8594 1.7969 0 140 114
-1.3281 16.0156 1.7969 0 140 114
-1.1719 15.3906 1.6406 0 134 120
-2.4219 16.3281 1.7969 0 140 114
-1.9531 16.4844 1.7969 0 140 114
-1.4844 16.3281 1.7969 0 140 114
-1.9531 16.6406 1.9531 0 146 108
-1.4844 16.6406 1.9531 0 146 108
-2.4219 17.2656 1.9531 0 146 108
-16.4844 0.0781 7.4219 96 158 0
-16.6406 0.5469 7.4219 96 158 0
-16.4844 0.3906 7.2656 90 164 0
-16.3281 0.3906 7.4219 96 158 0
-16.4844 0.7031 7.4219 96 158 0
-16.3281 0.8594 7.4219 96 158 0
-16.4844 1.1719 7.4219 96 158 0
-15.2344 0.0781 6.7969 73 181 0
-15.0781 0.0781 6.7969 73 181 0
-15.2344 0.2344 6.7969 73 181 0
-15.0781 0.8594 6.7969 73 181 0
-16.1719 0.0781 7.1094 84 170 0
-16.0156 0.0781 7.1094 84 170 0
-16.0156 0.2344 7.1094 84 170 0
-15.8594 0.3906 7.1094 84 170 0
-15.8594 0.5469 7.1094 84 170 0
-15.0781 0.3906 6.9531 79 175 0
-16.1719 0.8594 7.4219 96 158 0
-16.0156 1.0156 7.4219 96 158 0
-15.3906 0.8594 7.1094 84 170 0
-15.3906 1.1719 7.1094 84 170 0
-16.0156 1.4844 7.4219 96 158 0
-15.8594 1.3281 7.4219 96 158 0
-15.7031 1.4844 7.4219 96 158 0
-16.1719 1.6406 7.4219 96 158 0
-15.7031 1.6406 7.4219 96 158 0
-15.3906 1.4844 7.1094 84 170 0
-15.3906 1.3281 7.2656 90 164 0
-15.5469 1.4844 7.4219 96 158 0
-15.2344 1.3281 7.2656 90 164 0
-15.5469 1.6406 7.2656 90 164 0
-15.3906 1.7969 7.2656 90 164 0
-15.0781 1.6406 7.2656 90 164 0
-15.0781 1.6406 7.4219 96 158 0
-15.7031 1.9531 7.2656 90 164 0
-15.7031 2.1094 7.4219 96 158 0
-15.8594 2.2656 7.4219 96 158 0
-15.7031 2.2656 7.4219 96 158 0
-15.7031 2.4219 7.4219 96 158 0
-15.3906 1.9531 7.2656 90 164 0
-15.3906 1.9531 7.4219 96 158 0
-15.0781 2.1094 7.2656 90 164 0
-15.2344 1.9531 7.4219 96 158 0
-15.2344 2.1094 7.4219 96 158 0
-15.0781 2.1094 7.4219 96 158 0
-15.0781 2.2656 7.2656 90 164 0
-15.2344 2.2656 7.4219 96 158 0
-15.2344 2.4219 7.4219 96 158 0
-17.5781 4.2969 5.3906 20 234 0
-17.4219 2.8906 5.0781 8 246 0
-17.2656 3.0469 5.0781 8 246 0
-17.4219 3.3594 5.0781 8 246 0
-17.1094 3.2031 5.0781 8 246 0
-17.2656 3.5156 5.2344 14 240 0
-17.1094 3.5156 5.0781 8 246 0
-17.1094 3.6719 5.2344 14 240 0
-17.1094 3.9844 5.0781 8 246 0
-17.1094 3.9844 5.2344 14 240 0
-17.1094 4.1406 5.0781 8 246 0
-17.1094 4.2969 5.0781 8 246 0
-17.1094 4.4531 5.0781 8 246 0
-17.1094 4.6094 5.0781 8 246 0
-16.9531 4.6094 5.0781 8 246 0
-17.1094 4.4531 5.2344 14 240 0
-16.9531 4.7656 5.2344 14 240 0
-15.5469 4.7656 5.0781 8 246 0
-15.3906 2.5781 7.4219 96 158 0
-15.2344 2.5781 7.4219 96 158 0
-15.0781 2.7344 7.4219 96 158 0
-17.8906 0.0781 8.0469 120 134 0
-17.7344 0.0781 7.8906 114 140 0
-17.7344 0.2344 8.0469 120 134 0
-17.5781 0.3906 7.8906 114 140 0
-18.0469 0.7031 8.0469 120 134 0
-18.0469 0.8594 8.0469 120 134 0
-17.8906 1.1719 8.0469 120 134 0
-18.6719 0.2344 8.2031 126 128 0
-18.5156 0.0781 8.3594 131 123 0
-18.3594 0.0781 8.2031 126 128 0
-18.3594 0.2344 8.2031 126 128 0
-18.5156 0.3906 8.3594 131 123 0
-18.2031 0.3906 8.2031 126 128 0
-18.6719 0.5469 8.5156 137 117 0
-18.5156 0.7031 8.3594 131 123 0
-18.3594 0.8594 8.3594 131 123 0
-18.2031 1.0156 8.3594 131 123 0
-18.5156 0.7031 8.5156 137 117 0
-17.7344 1.3281 8.0469 120 134 0
-17.2656 0.0781 7.5781 102 152 0
-17.2656 0.2344 7.7344 108 146 0
-17.2656 0.3906 7.5781 102 152 0
-17.4219 0.2344 7.8906 114 140 0
-17.4219 0.0781 8.0469 120 134 0
-17.1094 0.0781 7.8906 114 140 0
-16.9531 0.2344 7.8906 114 140 0
-17.4219 0.5469 7.8906 114 140 0
-17.2656 0.5469 7.8906 114 140 0
-16.6406 0.5469 7.5781 102 152 0
-16.7969 0.5469 7.8906 114 140 0
-16.9531 0.7031 7.7344 108 146 0
-16.9531 1.1719 7.7344 108 146 0
-17.2656 0.7031 7.8906 114 140 0
-17.4219 0.8594 8.0469 120 134 0
-17.1094 0.8594 7.8906 114 140 0
-17.2656 1.0156 7.8906 114 140 0
-17.2656 1.1719 7.8906 114 140 0
-16.9531 1.1719 7.8906 114 140 0
-16.7969 0.7031 7.5781 102 152 0
-16.6406 0.7031 7.5781 102 152 0
-16.7969 0.8594 7.5781 102 152 0
-16.7969 0.7031 7.7344 108 146 0
-16.4844 0.8594 7.5781 102 152 0
-16.6406 1.1719 7.5781 102 152 0
-16.7969 1.1719 7.7344 108 146 0
-16.6406 1.1719 7.7344 108 146 0
-16.4844 1.0156 7.5781 102 152 0
-16.3281 1.0156 7.5781 102 152 0
-16.7969 0.7031 7.8906 114 140 0
-16.1719 1.1719 7.5781 102 152 0
-16.0156 1.1719 7.5781 102 152 0
-17.1094 1.4844 7.8906 114 140 0
-17.4219 1.6406 8.0469 120 134 0
-16.6406 1.4844 7.5781 102 152 0
-16.6406 1.3281 7.7344 108 146 0
-16.7969 1.4844 7.7344 108 146 0
-16.4844 1.3281 7.7344 108 146 0
-16.4844 1.4844 7.7344 108 146 0
-16.6406 1.6406 7.7344 108 146 0
-16.4844 1.7969 7.7344 108 146 0
-16.3281 1.7969 7.7344 108 146 0
-16.7969 1.3281 7.8906 114 140 0
-16.6406 1.6406 7.8906 114 140 0
-16.6406 1.9531 7.7344 108 146 0
-16.6406 1.9531 7.8906 114 140 0
-16.6406 2.1094 7.8906 114 140 0
-16.7969 1.9531 8.0469 120 134 0
-16.6406 2.1094 8.0469 120 134 0
-16.4844 2.1094 7.8906 114 140 0
-16.4844 2.4219 7.8906 114 140 0
-16.0156 1.4844 7.5781 102 152 0
-16.1719 1.3281 7.7344 108 146 0
-15.7031 1.4844 7.5781 102 152 0
-16.1719 1.7969 7.5781 102 152 0
-16.0156 1.7969 7.5781 102 152 0
-16.1719 1.6406 7.7344 108 146 0
-15.5469 1.6406 7.5781 102 152 0
-15.3906 1.6406 7.5781 102 152 0
-16.0156 1.9531 7.5781 102 152 0
-16.1719 2.1094 7.5781 102 152 0
-16.1719 2.1094 7.7344 108 146 0
-15.7031 2.1094 7.5781 102 152 0
-16.1719 2.2656 7.7344 108 146 0
-16.0156 2.4219 7.7344 108 146 0
-15.7031 2.2656 7.5781 102 152 0
-15.7031 2.4219 7.7344 108 146 0
-15.8594 2.2656 7.8906 114 140 0
-15.3906 1.9531 7.5781 102 152 0
-15.5469 2.1094 7.5781 102 152 0
-15.3906 2.2656 7.5781 102 152 0
-15.3906 2.4219 7.7344 108 146 0
-15.0781 2.4219 7.5781 102 152 0
-16.1719 2.5781 7.7344 108 146 0
-15.8594 2.5781 7.7344 108 146 0
-15.5469 2.7344 7.5781 102 152 0
-15.3906 2.7344 7.5781 102 152 0
-15.5469 2.5781 7.7344 108 146 0
-15.0781 2.5781 7.5781 102 152 0
-15.2344 2.7344 7.5781 102 152 0
-15.0781 2.7344 7.5781 102 152 0
-15.0781 2.7344 7.7344 108 146 0
-15.2344 3.0469 7.5781 102 152 0
-15.3906 2.7344 7.8906 114 140 0
-14.6094 0.2344 6.6406 67 187 0
-14.7656 0.5469 6.6406 67 187 0
-14.4531 0.5469 6.6406 67 187 0
-13.8281 0.5469 6.6406 67 187 0
-14.9219 0.8594 6.7969 73 181 0
-14.4531 0.7031 6.7969 73 181 0
-14.2969 0.8594 6.6406 67 187 0
-14.1406 0.7031 6.7969 73 181 0
-13.8281 0.8594 6.6406 67 187 0
-14.2969 1.0156 6.7969 73 181 0
-13.8281 1.1719 6.7969 73 181 0
-14.9219 1.0156 6.9531 79 175 0
-13.2031 1.1719 6.4844 61 193 0
-14.6094 1.3281 6.7969 73 181 0
-14.4531 1.4844 6.7969 73 181 0
-14.9219 1.6406 7.1094 84 170 0
-14.7656 1.4844 7.2656 90 164 0
-14.7656 1.7969 7.2656 90 164 0
-14.1406 1.7969 7.1094 84 170 0
-14.7656 1.9531 7.1094 84 170 0
-14.4531 1.9531 7.1094 84 170 0
-14.7656 2.1094 7.4219 96 158 0
-14.4531 2.1094 7.2656 90 164 0
-14.4531 2.1094 7.4219 96 158 0
-14.6094 2.4219 7.4219 96 158 0
-14.2969 2.1094 7.2656 90 164 0
-14.2969 2.2656 7.2656 90 164 0
-13.9844 2.4219 7.2656 90 164 0
-13.9844 2.2656 7.4219 96 158 0
-13.8281 2.4219 7.4219 96 158 0
-12.7344 1.4844 6.4844 61 193 0
-10.8594 1.0156 5.2344 14 240 0
-10.8594 1.1719 5.2344 14 240 0
-11.0156 1.1719 5.3906 20 234 0
-11.3281 1.4844 5.5469 26 228 0
-11.4844 1.6406 5.5469 26 228 0
-11.3281 1.7969 5.5469 26 228 0
-11.3281 2.1094 5.5469 26 228 0
-11.9531 1.7969 5.8594 38 216 0
-11.6406 1.6406 5.7031 32 222 0
-11.9531 2.1094 6.0156 43 211 0
-11.7969 1.9531 5.7031 32 222 0
-11.7969 1.9531 5.8594 38 216 0
-11.3281 1.9531 5.7031 32 222 0
-11.3281 2.1094 5.7031 32 222 0
-11.4844 2.1094 5.8594 38 216 0
-11.6406 2.2656 5.7031 32 222 0
-11.6406 2.4219 5.8594 38 216 0
-11.4844 2.2656 5.7031 32 222 0
-11.4844 2.4219 5.7031 32 222 0
-11.4844 2.2656 5.8594 38 216 0
-11.4844 2.4219 5.8594 38 216 0
-10.7031 1.4844 5.0781 8 246 0
-10.7031 1.4844 5.2344 14 240 0
-10.7031 1.6406 5.2344 14 240 0
-10.8594 1.7969 5.2344 14 240 0
-11.1719 1.3281 5.3906 20 234 0
-10.7031 1.4844 5.3906 20 234 0
-11.0156 1.6406 5.3906 20 234 0
-11.0156 1.7969 5.3906 20 234 0
-11.0156 1.7969 5.5469 26 228 0
-10.8594 1.6406 5.3906 20 234 0
-10.2344 1.4844 5.2344 14 240 0
-10.2344 1.4844 5.3906 20 234 0
-10.3906 1.6406 5.3906 20 234 0
-10.0781 1.7969 5.3906 20 234 0
-11.0156 1.9531 5.3906 20 234 0
-11.1719 2.1094 5.5469 26 228 0
-10.8594 2.1094 5.5469 26 228 0
-10.7031 2.1094 5.5469 26 228 0
-11.1719 2.2656 5.5469 26 228 0
-10.8594 2.2656 5.3906 20 234 0
-10.7031 2.2656 5.3906 20 234 0
-10.7031 2.2656 5.5469 26 228 0
-10.3906 2.1094 5.2344 14 240 0
-10.2344 2.1094 5.2344 14 240 0
-10.3906 1.9531 5.3906 20 234 0
-10.5469 1.9531 5.5469 26 228 0
-10.3906 2.1094 5.5469 26 228 0
-10.5469 2.2656 5.3906 20 234 0
-10.2344 2.2656 5.5469 26 228 0
-10.0781 2.4219 5.5469 26 228 0
-10.8594 2.1094 5.8594 38 216 0
-11.0156 2.2656 5.7031 32 222 0
-11.0156 2.4219 5.7031 32 222 0
-10.8594 2.4219 5.7031 32 222 0
-11.1719 2.4219 6.0156 43 211 0
-10.5469 2.2656 5.7031 32 222 0
-10.3906 2.4219 5.7031 32 222 0
-10.0781 2.2656 5.7031 32 222 0
-10.0781 2.2656 5.8594 38 216 0
-10.2344 2.4219 5.8594 38 216 0
-12.2656 1.9531 6.3281 55 199 0
-14.2969 2.8906 7.4219 96 158 0
-14.2969 3.0469 7.4219 96 158 0
-14.1406 3.2031 7.4219 96 158 0
-13.5156 2.7344 7.1094 84 170 0
-13.6719 2.5781 7.2656 90 164 0
-13.6719 2.8906 7.4219 96 158 0
-12.7344 3.9844 6.9531 79 175 0
-13.0469 4.6094 6.9531 79 175 0
-12.5781 4.7656 7.1094 84 170 0
-11.6406 2.7344 5.8594 38 216 0
-11.3281 2.7344 5.7031 32 222 0
-11.3281 2.5781 5.8594 38 216 0
-11.4844 2.7344 5.8594 38 216 0
-11.3281 2.8906 5.7031 32 222 0
-11.3281 2.8906 5.8594 38 216 0
-11.4844 3.0469 6.0156 43 211 0
-11.3281 3.2031 5.8594 38 216 0
-11.4844 3.2031 6.1719 49 205 0
-11.4844 3.3594 6.1719 49 205 0
-11.3281 3.5156 6.0156 43 211 0
-11.3281 3.6719 6.1719 49 205 0
-11.0156 2.5781 5.5469 26 228 0
-10.8594 2.5781 5.5469 26 228 0
-10.3906 2.5781 5.5469 26 228 0
-10.3906 3.0469 5.3906 20 234 0
-10.5469 2.8906 5.5469 26 228 0
-11.0156 2.5781 5.7031 32 222 0
-11.1719 2.7344 5.7031 32 222 0
-11.0156 2.7344 5.7031 32 222 0
-11.1719 2.5781 5.8594 38 216 0
-11.1719 2.7344 5.8594 38 216 0
-10.8594 2.5781 5.7031 32 222 0
-10.8594 2.7344 5.7031 32 222 0
-10.8594 2.5781 5.8594 38 216 0
-10.7031 2.7344 5.8594 38 216 0
-11.1719 2.8906 5.7031 32 222 0
-11.1719 3.0469 5.7031 32 222 0
-11.1719 2.8906 5.8594 38 216 0
-11.0156 2.8906 5.8594 38 216 0
-11.1719 3.0469 5.8594 38 216 0
-10.7031 2.8906 5.7031 32 222 0
-10.8594 2.8906 5.8594 38 216 0
-10.8594 3.0469 5.8594 38 216 0
-10.5469 2.7344 5.7031 32 222 0
-10.5469 2.5781 5.8594 38 216 0
-10.3906 2.5781 5.8594 38 216 0
-10.5469 2.7344 5.8594 38 216 0
-10.3906 2.7344 5.8594 38 216 0
-10.0781 2.5781 5.7031 32 222 0
-10.2344 2.7344 5.7031 32 222 0
-10.5469 2.8906 5.7031 32 222 0
-10.3906 2.8906 5.8594 38 216 0
-10.5469 3.0469 5.8594 38 216 0
-10.0781 2.8906 5.7031 32 222 0
-10.2344 3.0469 5.7031 32 222 0
-10.0781 3.0469 5.8594 38 216 0
-11.0156 3.3594 5.7031 32 222 0
-11.1719 3.2031 5.8594 38 216 0
-11.1719 3.3594 5.8594 38 216 0
-11.0156 3.3594 5.8594 38 216 0
-10.7031 3.2031 5.7031 32 222 0
-10.8594 3.2031 5.8594 38 216 0
-10.7031 3.2031 5.8594 38 216 0
-10.8594 3.3594 5.8594 38 216 0
-10.7031 3.3594 5.8594 38 216 0
-11.0156 3.5156 5.8594 38 216 0
-10.8594 3.5156 5.8594 38 216 0
-10.7031 3.5156 5.8594 38 216 0
-10.8594 3.6719 5.8594 38 216 0
-10.7031 3.6719 5.8594 38 216 0
-11.0156 3.6719 6.0156 43 211 0
-10.3906 3.3594 5.7031 32 222 0
-10.5469 3.2031 5.8594 38 216 0
-10.3906 3.3594 5.8594 38 216 0
-10.0781 3.2031 5.7031 32 222 0
-10.2344 3.2031 5.8594 38 216 0
-10.2344 3.3594 5.8594 38 216 0
-10.0781 3.3594 5.8594 38 216 0
-10.5469 3.5156 5.8594 38 216 0
-10.3906 3.5156 5.8594 38 216 0
-10.5469 3.6719 5.8594 38 216 0
-10.3906 3.6719 5.8594 38 216 0
-10.2344 3.5156 5.8594 38 216 0
-10.0781 3.5156 5.8594 38 216 0
-10.0781 3.6719 5.8594 38 216 0
-10.2344 3.6719 6.0156 43 211 0
-11.3281 3.8281 6.0156 43 211 0
-11.3281 3.9844 6.1719 49 205 0
-10.8594 3.9844 5.8594 38 216 0
-10.7031 4.1406 5.8594 38 216 0
-11.0156 3.8281 6.0156 43 211 0
-11.1719 3.9844 6.0156 43 211 0
-10.8594 3.8281 6.0156 43 211 0
-10.8594 3.9844 6.0156 43 211 0
-10.7031 3.9844 6.0156 43 211 0
-11.0156 4.1406 6.1719 49 205 0
-10.8594 4.1406 6.0156 43 211 0
-10.7031 4.1406 6.0156 43 211 0
-10.8594 4.2969 6.0156 43 211 0
-10.5469 3.8281 5.8594 38 216 0
-10.3906 3.8281 5.8594 38 216 0
-10.5469 3.9844 5.8594 38 216 0
-10.3906 3.9844 5.8594 38 216 0
-10.0781 3.8281 5.8594 38 216 0
-10.5469 3.9844 6.0156 43 211 0
-10.3906 3.9844 6.0156 43 211 0
-10.3906 3.9844 6.1719 49 205 0
-10.2344 3.9844 6.0156 43 211 0
-10.5469 4.1406 6.0156 43 211 0
-10.3906 4.1406 6.0156 43 211 0
-10.5469 4.2969 6.0156 43 211 0
-10.3906 4.2969 6.0156 43 211 0
-10.3906 4.1406 6.1719 49 205 0
-10.2344 4.1406 6.0156 43 211 0
-10.2344 4.2969 6.0156 43 211 0
-10.2344 4.2969 6.1719 49 205 0
-11.1719 4.4531 6.1719 49 205 0
-11.0156 4.6094 6.1719 49 205 0
-10.8594 4.4531 6.0156 43 211 0
-10.7031 4.4531 6.0156 43 211 0
-10.7031 4.6094 6.0156 43 211 0
-10.8594 4.4531 6.1719 49 205 0
-10.8594 4.6094 6.1719 49 205 0
-10.3906 4.4531 5.8594 38 216 0
-10.3906 4.6094 5.8594 38 216 0
-10.2344 4.6094 5.8594 38 216 0
-10.2344 4.7656 5.8594 38 216 0
-10.0781 4.7656 5.8594 38 216 0
-10.0781 4.9219 5.8594 38 216 0
-10.3906 4.4531 6.0156 43 211 0
-10.3906 4.6094 6.0156 43 211 0
-10.5469 4.6094 6.1719 49 205 0
-10.3906 4.6094 6.1719 49 205 0
-10.2344 4.4531 6.0156 43 211 0
-10.0781 4.4531 6.0156 43 211 0
-10.2344 4.6094 6.0156 43 211 0
-10.0781 4.4531 6.1719 49 205 0
-10.0781 4.6094 6.1719 49 205 0
-10.3906 4.7656 6.0156 43 211 0
-10.3906 4.9219 6.0156 43 211 0
-10.5469 4.7656 6.1719 49 205 0
-10.3906 4.7656 6.1719 49 205 0
-10.3906 4.9219 6.1719 49 205 0
-10.2344 4.7656 6.0156 43 211 0
-10.2344 4.7656 6.1719 49 205 0
-10.0781 4.7656 6.1719 49 205 0
-10.2344 4.9219 6.1719 49 205 0
-11.9531 3.6719 6.3281 55 199 0
-10.7031 3.0469 6.4844 61 193 0
-10.0781 2.7344 6.3281 55 199 0
-10.2344 2.7344 6.4844 61 193 0
-10.0781 2.7344 6.4844 61 193 0
-10.3906 3.0469 6.4844 61 193 0
-10.2344 2.8906 6.4844 61 193 0
-10.2344 3.0469 6.4844 61 193 0
-11.1719 3.2031 6.4844 61 193 0
-11.0156 3.3594 6.4844 61 193 0
-10.7031 3.6719 6.4844 61 193 0
-10.0781 3.3594 6.4844 61 193 0
-10.2344 3.6719 6.4844 61 193 0
-10.5469 3.6719 6.6406 67 187 0
-11.9531 3.8281 6.3281 55 199 0
-11.9531 4.2969 6.4844 61 193 0
-12.1094 3.8281 6.6406 67 187 0
-11.3281 3.8281 6.3281 55 199 0
-11.7969 4.1406 6.4844 61 193 0
-11.4844 4.1406 6.3281 55 199 0
-11.6406 3.8281 6.6406 67 187 0
-11.4844 3.8281 6.6406 67 187 0
-11.4844 4.6094 6.3281 55 199 0
-11.4844 4.6094 6.4844 61 193 0
-11.6406 4.9219 6.6406 67 187 0
-11.4844 4.7656 6.6406 67 187 0
-11.1719 4.2969 6.3281 55 199 0
-11.1719 4.6094 6.4844 61 193 0
-11.0156 4.6094 6.4844 61 193 0
-10.7031 4.6094 6.4844 61 193 0
-10.8594 4.9219 6.3281 55 199 0
-10.7031 4.9219 6.3281 55 199 0
-10.7031 4.9219 6.4844 61 193 0
-10.7031 4.9219 6.7969 73 181 0
-10.2344 4.4531 6.3281 55 199 0
-10.5469 4.7656 6.3281 55 199 0
-10.3906 4.9219 6.3281 55 199 0
-10.2344 4.7656 6.4844 61 193 0
-10.2344 4.7656 6.6406 67 187 0
-10.0781 4.7656 6.7969 73 181 0
-10.2344 4.9219 6.7969 73 181 0
-10.0781 4.9219 6.7969 73 181 0
-10.0781 4.9219 6.9531 79 175 0
-14.9219 1.9531 7.5781 102 152 0
-14.6094 1.9531 7.5781 102 152 0
-14.7656 2.4219 7.5781 102 152 0
-14.2969 2.1094 7.5781 102 152 0
-13.9844 2.2656 7.5781 102 152 0
-14.7656 2.7344 7.5781 102 152 0
-14.6094 2.7344 7.5781 102 152 0
-14.9219 2.8906 7.5781 102 152 0
-14.7656 2.8906 7.5781 102 152 0
-14.6094 2.8906 7.5781 102 152 0
-14.7656 2.7344 7.8906 114 140 0
-14.2969 2.8906 7.5781 102 152 0
-14.1406 3.0469 7.5781 102 152 0
-13.8281 3.2031 7.5781 102 152 0
-16.7969 5.0781 5.0781 8 246 0
-16.0156 6.4844 5.0781 8 246 0
-15.3906 6.7969 5.2344 14 240 0
-15.2344 7.1094 5.2344 14 240 0
-15.2344 7.2656 5.0781 8 246 0
-15.0781 7.4219 5.2344 14 240 0
-15.0781 7.1094 5.3906 20 234 0
-15.2344 7.7344 5.2344 14 240 0
-15.3906 7.5781 5.3906 20 234 0
-14.9219 6.7969 5.0781 8 246 0
-14.6094 6.6406 5.0781 8 246 0
-14.6094 7.2656 5.0781 8 246 0
-14.9219 7.2656 5.3906 20 234 0
-10.7031 5.0781 6.1719 49 205 0
-10.5469 5.0781 6.1719 49 205 0
-12.1094 7.4219 5.0781 8 246 0
-11.4844 5.2344 6.4844 61 193 0
-12.4219 5.0781 7.1094 84 170 0
-11.3281 5.5469 6.9531 79 175 0
-11.0156 5.0781 6.4844 61 193 0
-10.7031 5.2344 6.3281 55 199 0
-10.8594 5.2344 6.4844 61 193 0
-10.7031 5.5469 6.3281 55 199 0
-10.7031 5.5469 6.4844 61 193 0
-11.0156 5.2344 6.6406 67 187 0
-11.0156 5.5469 6.6406 67 187 0
-11.0156 5.5469 6.7969 73 181 0
-10.5469 5.0781 6.3281 55 199 0
-10.5469 5.2344 6.3281 55 199 0
-10.5469 5.2344 6.4844 61 193 0
-10.5469 5.3906 6.3281 55 199 0
-10.5469 5.3906 6.4844 61 193 0
-10.2344 5.3906 6.3281 55 199 0
-10.2344 5.5469 6.4844 61 193 0
-10.3906 5.0781 6.7969 73 181 0
-10.3906 5.2344 6.7969 73 181 0
-10.2344 5.0781 6.6406 67 187 0
-10.2344 5.0781 6.7969 73 181 0
-10.3906 5.3906 6.6406 67 187 0
-10.5469 5.5469 6.7969 73 181 0
-10.2344 5.3906 6.6406 67 187 0
-10.2344 5.5469 6.6406 67 187 0
-10.0781 5.3906 6.7969 73 181 0
-10.8594 5.7031 6.4844 61 193 0
-10.7031 5.8594 6.4844 61 193 0
-10.7031 6.0156 6.4844 61 193 0
-11.0156 5.7031 6.6406 67 187 0
-11.1719 6.0156 6.7969 73 181 0
-10.5469 5.7031 6.4844 61 193 0
-10.3906 5.7031 6.4844 61 193 0
-10.0781 5.7031 6.3281 55 199 0
-10.5469 6.1719 6.4844 61 193 0
-10.3906 6.1719 6.4844 61 193 0
-10.0781 6.0156 6.4844 61 193 0
-10.2344 6.1719 6.4844 61 193 0
-10.5469 5.8594 6.6406 67 187 0
-10.2344 5.8594 6.6406 67 187 0
-10.5469 6.0156 6.6406 67 187 0
-10.5469 6.1719 6.6406 67 187 0
-10.3906 6.1719 6.6406 67 187 0
-10.0781 6.0156 6.6406 67 187 0
-10.2344 6.1719 6.6406 67 187 0
-10.5469 5.0781 6.9531 79 175 0
-12.2656 6.6406 7.4219 96 158 0
-11.4844 6.9531 7.4219 96 158 0
-10.5469 6.3281 6.4844 61 193 0
-10.3906 6.3281 6.4844 61 193 0
-10.5469 6.4844 6.4844 61 193 0
-10.3906 6.4844 6.4844 61 193 0
-10.2344 6.3281 6.4844 61 193 0
-10.2344 6.4844 6.4844 61 193 0
-10.0781 6.4844 6.4844 61 193 0
-10.3906 6.6406 6.4844 61 193 0
-10.3906 6.7969 6.4844 61 193 0
-10.0781 6.6406 6.4844 61 193 0
-10.3906 6.3281 6.6406 67 187 0
-10.3906 6.4844 6.6406 67 187 0
-10.2344 6.3281 6.6406 67 187 0
