ply
format ascii 1.0
comment OctoMap 3D export - Moose Robot
comment Resolution: 0.100 m
element vertex 1396
property float x
property float y
property float z
property uchar red
property uchar green
property uchar blue
end_header
-16.8928 -17.8957 2.7554 237 17 0
-16.4241 -18.0520 2.7554 237 17 0
-16.2678 -17.8957 2.9117 246 8 0
-17.0491 -17.4270 2.7554 237 17 0
-16.7366 -17.2707 2.7554 237 17 0
-15.9553 -17.7395 2.9117 246 8 0
-15.7991 -17.4270 2.7554 237 17 0
-15.4866 -17.4270 2.9117 246 8 0
-16.8928 -16.6457 2.2867 211 43 0
-17.0491 -17.1145 2.4429 219 35 0
-16.7366 -16.9582 2.4429 219 35 0
-16.8928 -16.4895 2.2867 211 43 0
-17.2053 -16.3332 2.4429 219 35 0
-17.0491 -16.0207 2.4429 219 35 0
-15.7991 -17.1145 2.4429 219 35 0
-15.4866 -16.9582 2.5992 228 26 0
-15.3303 -16.6457 2.5992 228 26 0
-15.7991 -16.3332 2.5992 228 26 0
-15.6428 -16.1770 2.5992 228 26 0
-17.2053 -15.7082 2.2867 211 43 0
-17.2053 -15.3957 2.4429 219 35 0
-16.1116 -15.7082 2.5992 228 26 0
-17.2053 -15.0832 2.4429 219 35 0
-16.8928 -15.0832 2.5992 228 26 0
-17.0491 -14.9270 2.4429 219 35 0
-15.7991 -15.3957 2.5992 228 26 0
-15.6428 -15.2395 2.5992 228 26 0
-17.2053 -16.9582 2.7554 237 17 0
-16.8928 -17.1145 2.7554 237 17 0
-16.7366 -16.9582 2.7554 237 17 0
-17.0491 -16.8020 2.7554 237 17 0
-16.8928 -16.6457 2.7554 237 17 0
-16.1116 -16.9582 2.9117 246 8 0
-16.5803 -16.8020 2.7554 237 17 0
-16.4241 -16.6457 2.7554 237 17 0
-16.1116 -16.8020 2.9117 246 8 0
-17.2053 -16.3332 2.7554 237 17 0
-16.7366 -16.4895 2.7554 237 17 0
-17.0491 -16.1770 2.7554 237 17 0
-16.8928 -16.0207 2.7554 237 17 0
-16.4241 -16.4895 2.7554 237 17 0
-16.4241 -16.3332 2.7554 237 17 0
-16.4241 -16.1770 2.7554 237 17 0
-16.4241 -16.0207 2.7554 237 17 0
-15.6428 -16.6457 2.9117 246 8 0
-15.4866 -16.4895 2.9117 246 8 0
-15.6428 -16.1770 2.9117 246 8 0
-16.5803 -15.7082 2.7554 237 17 0
-16.4241 -15.7082 2.7554 237 17 0
-16.5803 -15.8645 2.9117 246 8 0
-16.4241 -15.3957 2.7554 237 17 0
-17.2053 -15.2395 2.7554 237 17 0
-16.8928 -15.0832 2.7554 237 17 0
-16.5803 -15.0832 2.9117 246 8 0
-16.4241 -14.7707 2.7554 237 17 0
-16.2678 -14.9270 2.9117 246 8 0
-15.9553 -15.7082 2.9117 246 8 0
-15.4866 -15.8645 2.9117 246 8 0
-15.4866 -15.5520 3.0679 255 0 0
-15.3303 -15.3957 3.0679 255 0 0
-15.4866 -15.2395 2.9117 246 8 0
-15.6428 -14.9270 2.9117 246 8 0
-5.4866 -32.5832 -3.6508 0 131 123
-5.6428 -32.4270 -3.6508 0 131 123
-5.0178 -32.5832 -3.9633 0 114 140
-4.8616 -32.5832 -3.9633 0 114 140
-5.0178 -32.4270 -3.9633 0 114 140
-5.0178 -32.2707 -3.9633 0 114 140
-4.8616 -32.2707 -3.9633 0 114 140
-5.1741 -32.5832 -3.8071 0 123 131
-5.1741 -32.5832 -3.6508 0 131 123
-5.0178 -32.5832 -3.8071 0 123 131
-5.1741 -32.4270 -3.8071 0 123 131
-5.1741 -32.4270 -3.6508 0 131 123
-5.0178 -32.4270 -3.8071 0 123 131
-5.0178 -32.2707 -3.8071 0 123 131
-5.0178 -32.4270 -3.6508 0 131 123
-5.0178 -32.2707 -3.6508 0 131 123
-6.7366 -32.2707 -3.3383 0 149 105
-6.4241 -32.2707 -3.4946 0 140 114
-6.2678 -32.4270 -3.4946 0 140 114
-6.2678 -32.2707 -3.4946 0 140 114
-5.9553 -32.5832 -3.4946 0 140 114
-5.9553 -32.4270 -3.4946 0 140 114
-5.7991 -32.2707 -3.4946 0 140 114
-6.1116 -33.5207 -1.4633 0 255 0
-5.0178 -33.6770 -2.0883 0 219 35
-5.0178 -33.6770 -1.9321 0 228 26
-5.0178 -33.6770 -1.7758 0 237 17
-5.1741 -33.6770 -1.6196 0 246 8
-5.1741 -33.5207 -1.4633 0 255 0
-5.0178 -33.6770 -1.6196 0 246 8
-5.3303 -33.5207 -1.3071 8 246 0
-6.8928 -33.0520 -1.1508 17 237 0
-6.8928 -32.8957 -1.1508 17 237 0
-6.5803 -33.3645 -1.3071 8 246 0
-6.2678 -33.2082 -1.1508 17 237 0
-6.4241 -32.2707 -1.1508 17 237 0
-6.1116 -32.4270 -1.1508 17 237 0
-6.1116 -32.2707 -1.1508 17 237 0
-5.0178 -32.5832 -1.9321 0 228 26
-5.0178 -32.4270 -1.9321 0 228 26
-5.0178 -32.4270 -1.7758 0 237 17
-5.7991 -33.3645 -1.1508 17 237 0
-5.7991 -32.4270 -1.3071 8 246 0
-5.7991 -32.2707 -1.3071 8 246 0
-5.4866 -32.4270 -1.3071 8 246 0
-5.4866 -32.2707 -1.3071 8 246 0
-5.0178 -32.5832 -1.4633 0 255 0
-4.8616 -32.5832 -1.4633 0 255 0
-5.1741 -32.4270 -1.4633 0 255 0
-5.0178 -32.4270 -1.6196 0 246 8
-5.0178 -32.2707 -1.6196 0 246 8
-5.0178 -32.4270 -1.4633 0 255 0
-5.0178 -32.2707 -1.4633 0 255 0
-5.3303 -32.5832 -1.3071 8 246 0
-5.0178 -32.5832 -1.3071 8 246 0
-5.1741 -32.4270 -1.3071 8 246 0
-5.0178 -32.2707 -1.3071 8 246 0
-4.5491 -33.5207 -1.9321 0 228 26
-4.3928 -33.5207 -1.9321 0 228 26
-4.3928 -33.5207 -1.7758 0 237 17
-4.5491 -33.5207 -1.4633 0 255 0
-4.3928 -33.5207 -1.6196 0 246 8
-4.3928 -33.5207 -1.4633 0 255 0
-4.5491 -33.5207 -1.3071 8 246 0
-2.8303 -32.2707 -1.3071 8 246 0
-7.2053 -32.1145 -3.4946 0 140 114
-7.2053 -31.9582 -3.4946 0 140 114
-6.8928 -32.1145 -3.3383 0 149 105
-7.0491 -31.8020 -3.3383 0 149 105
-7.2053 -31.9582 -3.1821 0 158 96
-7.2053 -31.8020 -3.1821 0 158 96
-7.2053 -31.6457 -3.1821 0 158 96
-6.4241 -32.1145 -3.4946 0 140 114
-6.5803 -31.9582 -3.3383 0 149 105
-6.1116 -32.1145 -3.4946 0 140 114
-7.0491 -31.4895 -3.1821 0 158 96
-5.3303 -29.7707 -2.5571 0 193 61
-5.1741 -29.7707 -2.5571 0 193 61
-4.8616 -29.9270 -2.5571 0 193 61
-4.8616 -29.7707 -2.5571 0 193 61
-6.1116 -32.1145 -1.7758 0 237 17
-6.4241 -31.4895 -2.0883 0 219 35
-6.1116 -31.3332 -2.0883 0 219 35
-6.4241 -31.4895 -1.7758 0 237 17
-6.2678 -31.4895 -1.9321 0 228 26
-6.1116 -31.3332 -1.9321 0 228 26
-6.2678 -31.4895 -1.7758 0 237 17
-6.1116 -31.3332 -1.7758 0 237 17
-6.8928 -31.9582 -1.4633 0 255 0
-7.0491 -31.9582 -1.3071 8 246 0
-7.2053 -31.6457 -1.3071 8 246 0
-6.8928 -31.8020 -1.3071 8 246 0
-6.4241 -31.9582 -1.6196 0 246 8
-6.2678 -32.1145 -1.6196 0 246 8
-6.4241 -32.1145 -1.1508 17 237 0
-6.4241 -31.8020 -1.3071 8 246 0
-6.5803 -31.6457 -1.1508 17 237 0
-6.1116 -31.8020 -1.3071 8 246 0
-6.7366 -31.4895 -1.4633 0 255 0
-6.8928 -31.3332 -1.3071 8 246 0
-6.8928 -31.4895 -1.1508 17 237 0
-7.2053 -31.1770 -1.3071 8 246 0
-6.8928 -31.0207 -1.1508 17 237 0
-6.4241 -31.4895 -1.6196 0 246 8
-6.2678 -31.4895 -1.6196 0 246 8
-6.1116 -31.3332 -1.6196 0 246 8
-6.2678 -31.4895 -1.4633 0 255 0
-6.2678 -31.3332 -1.4633 0 255 0
-6.5803 -31.1770 -1.3071 8 246 0
-6.1116 -31.0207 -1.3071 8 246 0
-6.1116 -31.0207 -1.1508 17 237 0
-5.7991 -31.9582 -2.0883 0 219 35
-5.7991 -31.9582 -1.9321 0 228 26
-5.7991 -31.9582 -1.7758 0 237 17
-5.6428 -31.9582 -1.9321 0 228 26
-5.6428 -31.9582 -1.7758 0 237 17
-5.6428 -31.8020 -1.9321 0 228 26
-5.4866 -31.8020 -1.9321 0 228 26
-5.4866 -31.8020 -1.7758 0 237 17
-5.3303 -31.8020 -1.7758 0 237 17
-5.1741 -31.6457 -1.7758 0 237 17
-5.9553 -31.3332 -1.9321 0 228 26
-5.9553 -31.3332 -1.7758 0 237 17
-5.7991 -31.3332 -1.7758 0 237 17
-5.7991 -31.1770 -1.9321 0 228 26
-5.7991 -31.1770 -1.7758 0 237 17
-5.6428 -31.1770 -1.9321 0 228 26
-5.6428 -31.1770 -1.7758 0 237 17
-5.6428 -31.0207 -1.7758 0 237 17
-4.8616 -31.4895 -1.7758 0 237 17
-5.3303 -31.0207 -1.7758 0 237 17
-5.9553 -31.9582 -1.6196 0 246 8
-5.9553 -31.9582 -1.4633 0 255 0
-5.6428 -31.9582 -1.6196 0 246 8
-5.9553 -31.8020 -1.4633 0 255 0
-5.6428 -31.8020 -1.6196 0 246 8
-5.4866 -31.8020 -1.6196 0 246 8
-5.4866 -31.8020 -1.4633 0 255 0
-5.4866 -31.8020 -1.3071 8 246 0
-5.6428 -31.6457 -1.3071 8 246 0
-5.3303 -31.8020 -1.6196 0 246 8
-5.1741 -31.6457 -1.6196 0 246 8
-5.3303 -31.6457 -1.4633 0 255 0
-5.1741 -31.6457 -1.4633 0 255 0
-5.0178 -31.6457 -1.6196 0 246 8
-5.0178 -31.6457 -1.4633 0 255 0
-5.1741 -31.6457 -1.3071 8 246 0
-5.9553 -31.3332 -1.6196 0 246 8
-5.9553 -31.3332 -1.4633 0 255 0
-5.7991 -31.3332 -1.4633 0 255 0
-5.7991 -31.0207 -1.4633 0 255 0
-5.6428 -31.1770 -1.6196 0 246 8
-5.6428 -31.0207 -1.6196 0 246 8
-5.4866 -31.0207 -1.6196 0 246 8
-5.6428 -31.1770 -1.4633 0 255 0
-5.6428 -31.0207 -1.4633 0 255 0
-5.7991 -31.4895 -1.1508 17 237 0
-5.9553 -31.0207 -1.3071 8 246 0
-5.7991 -31.0207 -1.3071 8 246 0
-5.4866 -31.1770 -1.3071 8 246 0
-5.4866 -31.0207 -1.3071 8 246 0
-5.3303 -31.0207 -1.6196 0 246 8
-5.0178 -31.4895 -1.3071 8 246 0
-6.4241 -30.7082 -1.9321 0 228 26
-6.4241 -30.7082 -1.7758 0 237 17
-6.4241 -30.5520 -1.9321 0 228 26
-6.4241 -30.3957 -1.9321 0 228 26
-6.4241 -30.5520 -1.7758 0 237 17
-6.4241 -30.3957 -1.7758 0 237 17
-6.2678 -30.3957 -1.9321 0 228 26
-6.7366 -29.7707 -1.7758 0 237 17
-6.4241 -30.0832 -1.9321 0 228 26
-6.5803 -30.0832 -1.7758 0 237 17
-6.4241 -30.0832 -1.7758 0 237 17
-6.2678 -30.2395 -1.7758 0 237 17
-6.2678 -30.0832 -1.7758 0 237 17
-6.4241 -29.9270 -1.9321 0 228 26
-6.5803 -29.9270 -1.7758 0 237 17
-6.5803 -29.7707 -1.7758 0 237 17
-6.8928 -30.7082 -1.4633 0 255 0
-6.8928 -30.5520 -1.4633 0 255 0
-6.8928 -30.3957 -1.4633 0 255 0
-7.2053 -30.8645 -1.1508 17 237 0
-6.7366 -30.8645 -1.1508 17 237 0
-6.8928 -30.7082 -1.1508 17 237 0
-7.2053 -30.5520 -1.3071 8 246 0
-7.2053 -30.3957 -1.3071 8 246 0
-6.8928 -30.3957 -1.3071 8 246 0
-6.8928 -30.5520 -1.1508 17 237 0
-6.4241 -30.8645 -1.6196 0 246 8
-6.4241 -30.7082 -1.6196 0 246 8
-6.4241 -30.7082 -1.4633 0 255 0
-6.4241 -30.5520 -1.6196 0 246 8
-6.4241 -30.3957 -1.6196 0 246 8
-6.4241 -30.5520 -1.4633 0 255 0
-6.4241 -30.3957 -1.4633 0 255 0
-6.4241 -30.8645 -1.1508 17 237 0
-6.5803 -30.7082 -1.1508 17 237 0
-6.2678 -30.8645 -1.3071 8 246 0
-6.4241 -30.3957 -1.3071 8 246 0
-6.7366 -29.7707 -1.6196 0 246 8
-6.7366 -29.9270 -1.4633 0 255 0
-6.8928 -29.7707 -1.4633 0 255 0
-6.7366 -29.7707 -1.4633 0 255 0
-7.2053 -30.2395 -1.3071 8 246 0
-7.2053 -30.0832 -1.1508 17 237 0
-6.8928 -30.2395 -1.3071 8 246 0
-6.8928 -30.0832 -1.3071 8 246 0
-7.2053 -29.7707 -1.3071 8 246 0
-7.2053 -29.9270 -1.1508 17 237 0
-6.8928 -29.9270 -1.3071 8 246 0
-6.8928 -29.7707 -1.3071 8 246 0
-6.5803 -30.0832 -1.6196 0 246 8
-6.4241 -30.0832 -1.6196 0 246 8
-6.4241 -30.2395 -1.4633 0 255 0
-6.5803 -30.0832 -1.4633 0 255 0
-6.4241 -30.0832 -1.4633 0 255 0
-6.2678 -30.2395 -1.6196 0 246 8
-6.2678 -30.0832 -1.6196 0 246 8
-6.5803 -29.9270 -1.6196 0 246 8
-6.5803 -29.7707 -1.6196 0 246 8
-6.5803 -29.9270 -1.4633 0 255 0
-6.4241 -30.2395 -1.3071 8 246 0
-6.5803 -30.0832 -1.3071 8 246 0
-6.5803 -29.9270 -1.3071 8 246 0
-5.7991 -30.8645 -1.7758 0 237 17
-5.7991 -30.7082 -1.7758 0 237 17
-5.6428 -30.8645 -1.7758 0 237 17
-5.7991 -30.5520 -1.7758 0 237 17
-5.7991 -30.8645 -1.6196 0 246 8
-5.7991 -30.7082 -1.6196 0 246 8
-5.9553 -30.8645 -1.4633 0 255 0
-5.7991 -30.8645 -1.4633 0 255 0
-5.9553 -30.7082 -1.4633 0 255 0
-5.7991 -30.7082 -1.4633 0 255 0
-5.9553 -30.8645 -1.3071 8 246 0
-5.7991 -30.8645 -1.3071 8 246 0
-5.9553 -30.7082 -1.3071 8 246 0
-4.3928 -29.7707 -2.7133 0 184 70
-4.5491 -30.0832 -2.5571 0 193 61
-4.3928 -30.0832 -2.5571 0 193 61
-4.5491 -29.9270 -2.5571 0 193 61
-4.5491 -29.7707 -2.5571 0 193 61
-4.3928 -29.7707 -2.4008 0 202 52
-3.6116 -30.0832 -2.7133 0 184 70
-4.0803 -29.9270 -2.7133 0 184 70
-3.9241 -29.9270 -2.7133 0 184 70
-4.0803 -29.7707 -2.7133 0 184 70
-3.6116 -29.7707 -2.7133 0 184 70
-4.0803 -30.2395 -2.5571 0 193 61
-3.4553 -30.5520 -2.5571 0 193 61
-2.9866 -30.3957 -2.4008 0 202 52
-2.5178 -30.3957 -2.7133 0 184 70
-2.5178 -30.5520 -2.4008 0 202 52
-3.2991 -30.0832 -2.7133 0 184 70
-3.2991 -29.7707 -2.8696 0 175 79
-3.2991 -29.7707 -2.7133 0 184 70
-2.9866 -29.9270 -2.8696 0 175 79
-2.9866 -29.9270 -2.7133 0 184 70
-3.2991 -30.0832 -2.4008 0 202 52
-2.8303 -30.0832 -2.8696 0 175 79
-2.8303 -29.7707 -2.8696 0 175 79
-2.8303 -29.7707 -2.7133 0 184 70
-2.3616 -29.9270 -2.8696 0 175 79
-2.5178 -29.9270 -2.7133 0 184 70
-2.5178 -30.2395 -2.5571 0 193 61
-2.8303 -32.1145 -1.1508 17 237 0
-2.8303 -31.9582 -1.1508 17 237 0
-2.6741 -31.9582 -1.1508 17 237 0
-6.1116 -33.0520 -0.8383 35 219 0
-7.2053 -32.7395 -0.8383 35 219 0
-6.4241 -32.5832 -0.6821 43 211 0
-3.6116 -32.2707 -0.6821 43 211 0
-7.2053 -31.9582 -0.9946 26 228 0
-6.8928 -32.1145 -0.9946 26 228 0
-6.7366 -31.9582 -0.9946 26 228 0
-7.0491 -31.8020 -0.9946 26 228 0
-7.2053 -31.8020 -0.8383 35 219 0
-7.2053 -31.6457 -0.8383 35 219 0
-7.0491 -31.1770 -0.9946 26 228 0
-7.2053 -31.0207 -0.9946 26 228 0
-6.5803 -31.3332 -0.9946 26 228 0
-6.1116 -31.4895 -0.9946 26 228 0
-5.0178 -31.6457 -0.5258 52 202 0
-5.6428 -31.0207 -0.2133 70 184 0
-5.3303 -31.3332 -0.3696 61 193 0
-5.1741 -31.4895 -0.2133 70 184 0
-5.3303 -31.1770 -0.2133 70 184 0
-6.7366 -30.7082 -0.9946 26 228 0
-7.0491 -30.5520 -0.9946 26 228 0
-7.0491 -30.3957 -0.9946 26 228 0
-7.2053 -30.5520 -0.8383 35 219 0
-7.2053 -30.2395 -0.9946 26 228 0
-6.4241 -30.5520 0.0992 87 167 0
-6.5803 -30.3957 0.0992 87 167 0
-6.2678 -30.3957 0.0992 87 167 0
-6.2678 -30.0832 0.0992 87 167 0
-5.9553 -30.8645 -0.0571 79 175 0
-5.7991 -30.7082 0.0992 87 167 0
-5.1741 -30.0832 0.0992 87 167 0
-6.8928 -29.7707 0.2554 96 158 0
-6.4241 -30.0832 0.2554 96 158 0
-6.5803 -29.9270 0.2554 96 158 0
-6.2678 -29.7707 0.2554 96 158 0
-4.7053 -31.9582 -0.5258 52 202 0
-4.3928 -32.1145 -0.5258 52 202 0
-3.9241 -32.1145 -0.5258 52 202 0
-4.7053 -31.8020 -0.3696 61 193 0
-4.2366 -31.0207 -0.2133 70 184 0
-3.9241 -31.1770 -0.3696 61 193 0
-3.6116 -31.1770 -0.3696 61 193 0
-3.2991 -32.1145 -0.6821 43 211 0
-2.8303 -32.1145 -0.9946 26 228 0
-2.6741 -31.9582 -0.9946 26 228 0
-2.8303 -32.1145 -0.8383 35 219 0
-3.2991 -31.3332 -0.5258 52 202 0
-3.1428 -31.4895 -0.5258 52 202 0
-2.6741 -31.3332 -0.9946 26 228 0
-2.6741 -31.3332 -0.8383 35 219 0
-2.5178 -31.3332 -0.9946 26 228 0
-2.5178 -31.3332 -0.8383 35 219 0
-2.6741 -31.1770 -0.9946 26 228 0
-2.6741 -31.3332 -0.6821 43 211 0
-2.6741 -31.3332 -0.5258 52 202 0
-2.6741 -31.1770 -0.6821 43 211 0
-4.5491 -30.7082 -0.2133 70 184 0
-4.5491 -30.5520 -0.0571 79 175 0
-0.9553 -31.8020 -3.0258 0 167 87
-0.0178 -31.3332 -3.0258 0 167 87
-0.3303 -31.6457 -2.8696 0 175 79
-0.0178 -31.4895 -2.8696 0 175 79
-1.8928 -30.8645 -2.5571 0 193 61
-1.2678 -30.3957 -2.7133 0 184 70
-2.2053 -30.0832 -2.8696 0 175 79
-2.2053 -30.2395 -2.7133 0 184 70
-2.2053 -29.7707 -2.8696 0 175 79
-1.8928 -29.9270 -2.8696 0 175 79
-1.5803 -29.7707 -2.8696 0 175 79
-1.5803 -30.0832 -2.5571 0 193 61
-0.4866 -30.0832 -2.5571 0 193 61
-6.7366 -29.1457 -2.4008 0 202 52
-6.2678 -29.4582 -2.4008 0 202 52
-6.1116 -29.4582 -2.4008 0 202 52
-6.5803 -29.3020 -2.5571 0 193 61
-6.5803 -29.1457 -2.5571 0 193 61
-6.5803 -29.3020 -2.4008 0 202 52
-6.2678 -29.3020 -2.5571 0 193 61
-6.2678 -29.1457 -2.5571 0 193 61
-6.1116 -29.1457 -2.5571 0 193 61
-7.0491 -28.8332 -2.5571 0 193 61
-7.0491 -28.9895 -2.4008 0 202 52
-6.7366 -28.8332 -2.5571 0 193 61
-7.0491 -28.5207 -2.5571 0 193 61
-7.2053 -28.5207 -2.4008 0 202 52
-7.0491 -28.5207 -2.4008 0 202 52
-6.8928 -28.6770 -2.5571 0 193 61
-6.7366 -28.6770 -2.5571 0 193 61
-6.8928 -28.6770 -2.4008 0 202 52
-6.1116 -28.9895 -2.7133 0 184 70
-6.2678 -28.8332 -2.7133 0 184 70
-6.1116 -28.6770 -2.7133 0 184 70
-6.2678 -28.5207 -2.7133 0 184 70
-6.4241 -28.9895 -2.5571 0 193 61
-6.5803 -28.8332 -2.5571 0 193 61
-6.4241 -28.8332 -2.5571 0 193 61
-6.4241 -28.9895 -2.4008 0 202 52
-6.2678 -28.9895 -2.5571 0 193 61
-6.2678 -28.9895 -2.4008 0 202 52
-6.4241 -28.6770 -2.5571 0 193 61
-6.5803 -28.5207 -2.5571 0 193 61
-6.4241 -28.5207 -2.5571 0 193 61
-6.5803 -28.6770 -2.4008 0 202 52
-6.5803 -28.5207 -2.4008 0 202 52
-5.7991 -29.1457 -2.7133 0 184 70
-5.4866 -29.3020 -2.7133 0 184 70
-5.4866 -29.1457 -2.7133 0 184 70
-5.7991 -29.4582 -2.5571 0 193 61
-5.7991 -29.6145 -2.4008 0 202 52
-5.9553 -29.3020 -2.5571 0 193 61
-5.7991 -29.3020 -2.5571 0 193 61
-5.7991 -29.1457 -2.5571 0 193 61
-5.9553 -29.1457 -2.4008 0 202 52
-5.7991 -29.1457 -2.4008 0 202 52
-5.4866 -29.3020 -2.5571 0 193 61
-4.8616 -29.6145 -2.7133 0 184 70
-5.1741 -29.1457 -2.7133 0 184 70
-5.0178 -29.1457 -2.8696 0 175 79
-4.8616 -29.3020 -2.7133 0 184 70
-5.0178 -29.1457 -2.7133 0 184 70
-5.1741 -29.6145 -2.5571 0 193 61
-5.1741 -29.4582 -2.5571 0 193 61
-4.8616 -29.6145 -2.5571 0 193 61
-5.9553 -28.8332 -2.7133 0 184 70
-5.6428 -28.9895 -2.7133 0 184 70
-5.4866 -28.9895 -2.7133 0 184 70
-5.6428 -28.8332 -2.7133 0 184 70
-5.7991 -28.6770 -2.7133 0 184 70
-5.9553 -28.5207 -2.7133 0 184 70
-5.4866 -28.5207 -2.7133 0 184 70
-5.1741 -28.8332 -2.8696 0 175 79
-5.1741 -28.9895 -2.7133 0 184 70
-5.3303 -28.8332 -2.7133 0 184 70
-5.0178 -28.9895 -2.8696 0 175 79
-5.3303 -28.6770 -2.8696 0 175 79
-4.8616 -28.6770 -2.7133 0 184 70
-4.8616 -28.5207 -2.7133 0 184 70
-6.7366 -28.0520 -2.7133 0 184 70
-6.8928 -27.8957 -2.7133 0 184 70
-7.2053 -28.2082 -2.5571 0 193 61
-7.0491 -28.2082 -2.5571 0 193 61
-7.2053 -28.2082 -2.4008 0 202 52
-6.8928 -28.3645 -2.5571 0 193 61
-6.7366 -28.3645 -2.5571 0 193 61
-6.7366 -28.3645 -2.4008 0 202 52
-7.2053 -28.0520 -2.5571 0 193 61
-6.4241 -28.3645 -2.7133 0 184 70
-6.5803 -28.2082 -2.7133 0 184 70
-6.2678 -28.2082 -2.7133 0 184 70
-6.2678 -27.8957 -2.7133 0 184 70
-6.5803 -28.3645 -2.5571 0 193 61
-7.0491 -27.7395 -2.7133 0 184 70
-7.2053 -27.5832 -2.7133 0 184 70
-6.7366 -27.5832 -2.7133 0 184 70
-7.2053 -27.2707 -2.4008 0 202 52
-7.0491 -27.2707 -2.4008 0 202 52
-6.5803 -27.7395 -2.7133 0 184 70
-6.4241 -27.7395 -2.7133 0 184 70
-6.1116 -27.5832 -2.7133 0 184 70
-6.1116 -27.7395 -2.5571 0 193 61
-6.2678 -27.5832 -2.5571 0 193 61
-6.4241 -27.4270 -2.5571 0 193 61
-6.4241 -27.2707 -2.5571 0 193 61
-5.9553 -28.2082 -2.7133 0 184 70
-5.4866 -28.3645 -2.7133 0 184 70
-5.6428 -28.2082 -2.7133 0 184 70
-5.4866 -28.2082 -2.7133 0 184 70
-5.7991 -28.0520 -2.7133 0 184 70
-5.9553 -27.8957 -2.7133 0 184 70
-5.7991 -27.8957 -2.7133 0 184 70
-5.6428 -28.0520 -2.7133 0 184 70
-5.4866 -27.8957 -2.7133 0 184 70
-5.3303 -28.3645 -2.8696 0 175 79
-5.1741 -28.2082 -2.7133 0 184 70
-5.0178 -28.3645 -2.7133 0 184 70
-5.3303 -28.0520 -2.7133 0 184 70
-5.1741 -27.8957 -2.7133 0 184 70
-4.8616 -28.0520 -2.7133 0 184 70
-5.9553 -27.7395 -2.7133 0 184 70
-5.7991 -27.5832 -2.7133 0 184 70
-5.6428 -27.7395 -2.7133 0 184 70
-5.4866 -27.5832 -2.7133 0 184 70
-5.9553 -27.4270 -2.7133 0 184 70
-5.6428 -27.4270 -2.7133 0 184 70
-5.3303 -27.7395 -2.7133 0 184 70
-5.3303 -27.5832 -2.7133 0 184 70
-4.8616 -27.7395 -2.7133 0 184 70
-5.0178 -27.5832 -2.7133 0 184 70
-5.1741 -27.4270 -2.7133 0 184 70
-5.1741 -27.2707 -2.7133 0 184 70
-6.8928 -29.6145 -1.7758 0 237 17
-6.7366 -29.6145 -1.7758 0 237 17
-6.8928 -29.4582 -1.7758 0 237 17
-6.7366 -29.4582 -1.7758 0 237 17
-7.0491 -28.5207 -2.2446 0 211 43
-7.2053 -28.5207 -2.0883 0 219 35
-6.7366 -28.6770 -2.0883 0 219 35
-7.0491 -28.5207 -1.9321 0 228 26
-6.1116 -28.9895 -2.2446 0 211 43
-6.2678 -28.9895 -2.0883 0 219 35
-6.5803 -28.6770 -2.2446 0 211 43
-6.5803 -28.8332 -1.9321 0 228 26
-6.1116 -28.6770 -1.9321 0 228 26
-6.2678 -28.5207 -1.7758 0 237 17
-7.0491 -29.4582 -1.4633 0 255 0
-6.7366 -29.6145 -1.6196 0 246 8
-6.8928 -29.4582 -1.6196 0 246 8
-6.8928 -29.6145 -1.4633 0 255 0
-6.7366 -29.6145 -1.4633 0 255 0
-6.8928 -29.4582 -1.4633 0 255 0
-7.0491 -29.3020 -1.4633 0 255 0
-7.2053 -29.6145 -1.3071 8 246 0
-7.0491 -29.6145 -1.3071 8 246 0
-7.0491 -29.4582 -1.3071 8 246 0
-6.8928 -28.6770 -1.4633 0 255 0
-6.2678 -28.6770 -1.4633 0 255 0
-5.1741 -29.3020 -1.7758 0 237 17
-5.9553 -28.6770 -1.9321 0 228 26
-5.4866 -29.1457 -1.6196 0 246 8
-5.7991 -28.9895 -1.6196 0 246 8
-7.0491 -28.3645 -1.9321 0 228 26
-7.0491 -28.3645 -1.7758 0 237 17
-6.7366 -28.3645 -1.9321 0 228 26
-6.7366 -28.3645 -1.7758 0 237 17
-6.5803 -28.3645 -1.9321 0 228 26
-6.8928 -28.2082 -1.4633 0 255 0
-7.2053 -28.0520 -1.4633 0 255 0
-7.0491 -28.2082 -1.3071 8 246 0
-6.4241 -28.3645 -1.4633 0 255 0
-6.2678 -28.3645 -1.4633 0 255 0
-4.3928 -29.4582 -2.7133 0 184 70
-4.2366 -29.4582 -2.7133 0 184 70
-4.5491 -29.3020 -2.8696 0 175 79
-4.7053 -29.3020 -2.7133 0 184 70
-4.3928 -29.3020 -2.7133 0 184 70
-4.3928 -29.1457 -2.7133 0 184 70
-4.7053 -29.6145 -2.4008 0 202 52
-4.0803 -29.4582 -2.8696 0 175 79
-3.9241 -29.6145 -2.7133 0 184 70
-4.0803 -29.4582 -2.7133 0 184 70
-3.7678 -29.6145 -2.8696 0 175 79
-3.6116 -29.4582 -2.8696 0 175 79
-3.6116 -29.6145 -2.7133 0 184 70
-3.6116 -29.4582 -2.7133 0 184 70
-4.0803 -29.1457 -2.8696 0 175 79
-4.0803 -29.3020 -2.7133 0 184 70
-3.7678 -29.3020 -2.8696 0 175 79
-4.5491 -28.9895 -2.7133 0 184 70
-4.7053 -28.8332 -2.7133 0 184 70
-4.2366 -28.9895 -2.8696 0 175 79
-4.5491 -28.5207 -2.8696 0 175 79
-4.3928 -28.6770 -2.8696 0 175 79
-3.9241 -28.8332 -2.8696 0 175 79
-4.0803 -28.6770 -2.8696 0 175 79
-4.0803 -28.5207 -2.7133 0 184 70
-3.6116 -28.5207 -2.8696 0 175 79
-3.2991 -29.6145 -2.8696 0 175 79
-3.2991 -29.6145 -2.7133 0 184 70
-2.9866 -29.1457 -2.8696 0 175 79
-2.8303 -29.4582 -2.8696 0 175 79
-2.5178 -29.6145 -2.8696 0 175 79
-3.1428 -28.9895 -2.8696 0 175 79
-3.4553 -28.6770 -2.8696 0 175 79
-3.2991 -28.6770 -2.8696 0 175 79
-3.2991 -28.5207 -2.8696 0 175 79
-2.3616 -28.9895 -2.8696 0 175 79
-2.5178 -28.8332 -2.8696 0 175 79
-2.5178 -28.6770 -2.8696 0 175 79
-4.5491 -28.3645 -2.8696 0 175 79
-4.7053 -28.2082 -2.7133 0 184 70
-4.2366 -28.2082 -2.7133 0 184 70
-4.7053 -27.8957 -2.7133 0 184 70
-4.2366 -28.0520 -2.7133 0 184 70
-4.3928 -27.8957 -2.7133 0 184 70
-3.7678 -28.3645 -2.8696 0 175 79
-3.7678 -28.2082 -2.7133 0 184 70
-3.9241 -28.0520 -2.7133 0 184 70
-4.0803 -27.8957 -2.7133 0 184 70
-3.6116 -27.8957 -2.8696 0 175 79
-4.5491 -27.5832 -2.7133 0 184 70
-4.3928 -27.7395 -2.7133 0 184 70
-4.5491 -27.4270 -2.7133 0 184 70
-4.5491 -27.2707 -2.7133 0 184 70
-4.0803 -27.7395 -2.8696 0 175 79
-4.0803 -27.5832 -2.8696 0 175 79
-3.7678 -27.7395 -2.8696 0 175 79
-4.0803 -27.2707 -2.7133 0 184 70
-3.4553 -28.2082 -2.8696 0 175 79
-3.4553 -28.0520 -2.8696 0 175 79
-2.6741 -28.0520 -2.8696 0 175 79
-2.8303 -27.8957 -2.8696 0 175 79
-2.3616 -27.8957 -2.8696 0 175 79
-2.9866 -27.7395 -2.8696 0 175 79
-2.9866 -27.5832 -2.8696 0 175 79
-3.1428 -27.5832 -2.7133 0 184 70
-3.2991 -27.4270 -2.7133 0 184 70
-3.2991 -27.2707 -2.7133 0 184 70
-2.9866 -27.4270 -2.8696 0 175 79
-3.1428 -27.2707 -2.7133 0 184 70
-2.9866 -27.2707 -2.7133 0 184 70
-2.8303 -27.7395 -2.8696 0 175 79
-2.8303 -27.5832 -2.7133 0 184 70
-2.3616 -27.7395 -2.7133 0 184 70
-2.8303 -27.4270 -2.7133 0 184 70
-4.2366 -29.4582 -1.7758 0 237 17
-7.2053 -27.1145 -2.4008 0 202 52
-7.2053 -26.9582 -2.4008 0 202 52
-6.7366 -26.9582 -2.5571 0 193 61
-7.2053 -26.6457 -2.5571 0 193 61
-6.7366 -26.8020 -2.5571 0 193 61
-6.5803 -27.1145 -2.5571 0 193 61
-6.1116 -27.1145 -2.5571 0 193 61
-6.2678 -26.9582 -2.5571 0 193 61
-7.0491 -26.3332 -2.5571 0 193 61
-6.8928 -26.4895 -2.5571 0 193 61
-6.2678 -26.4895 -2.4008 0 202 52
-6.2678 -26.3332 -2.4008 0 202 52
-6.5803 -26.1770 -2.4008 0 202 52
-6.5803 -26.0207 -2.4008 0 202 52
-6.2678 -26.1770 -2.5571 0 193 61
-6.2678 -26.0207 -2.5571 0 193 61
-5.7991 -26.9582 -2.5571 0 193 61
-5.6428 -27.1145 -2.5571 0 193 61
-5.4866 -27.1145 -2.5571 0 193 61
-5.6428 -26.9582 -2.5571 0 193 61
-5.9553 -26.8020 -2.5571 0 193 61
-5.7991 -26.6457 -2.5571 0 193 61
-5.6428 -26.8020 -2.5571 0 193 61
-5.0178 -26.9582 -2.5571 0 193 61
-5.1741 -26.6457 -2.4008 0 202 52
-5.0178 -26.8020 -2.5571 0 193 61
-5.7991 -26.4895 -2.5571 0 193 61
-5.9553 -26.3332 -2.5571 0 193 61
-5.4866 -26.1770 -2.4008 0 202 52
-5.6428 -26.0207 -2.4008 0 202 52
-5.3303 -26.4895 -2.4008 0 202 52
-5.3303 -26.3332 -2.4008 0 202 52
-4.8616 -26.1770 -2.4008 0 202 52
-5.0178 -26.0207 -2.4008 0 202 52
-7.2053 -25.8645 -2.4008 0 202 52
-7.2053 -25.7082 -2.4008 0 202 52
-6.7366 -25.8645 -2.4008 0 202 52
-6.7366 -25.7082 -2.4008 0 202 52
-6.8928 -25.5520 -2.4008 0 202 52
-6.8928 -25.3957 -2.4008 0 202 52
-6.7366 -25.3957 -2.4008 0 202 52
-6.4241 -25.8645 -2.5571 0 193 61
-6.5803 -25.7082 -2.5571 0 193 61
-6.5803 -25.5520 -2.4008 0 202 52
-6.1116 -25.5520 -2.4008 0 202 52
-6.1116 -25.3957 -2.4008 0 202 52
-7.0491 -25.2395 -2.4008 0 202 52
-6.7366 -25.2395 -2.4008 0 202 52
-6.2678 -25.2395 -2.4008 0 202 52
-6.2678 -25.0832 -2.4008 0 202 52
-5.7991 -25.8645 -2.4008 0 202 52
-5.7991 -25.7082 -2.4008 0 202 52
-5.6428 -25.3957 -2.4008 0 202 52
-5.1741 -25.8645 -2.4008 0 202 52
-5.3303 -25.7082 -2.4008 0 202 52
-5.3303 -25.5520 -2.4008 0 202 52
-5.6428 -25.2395 -2.4008 0 202 52
-5.6428 -25.0832 -2.4008 0 202 52
-5.6428 -24.9270 -2.4008 0 202 52
-6.8928 -24.9270 -2.2446 0 211 43
-6.8928 -24.7707 -2.2446 0 211 43
-6.2678 -24.7707 -2.2446 0 211 43
-4.5491 -27.1145 -2.7133 0 184 70
-4.2366 -27.1145 -2.7133 0 184 70
-4.2366 -26.9582 -2.7133 0 184 70
-4.5491 -26.8020 -2.5571 0 193 61
-4.5491 -26.6457 -2.5571 0 193 61
-3.9241 -26.6457 -2.5571 0 193 61
-4.5491 -26.4895 -2.5571 0 193 61
-4.7053 -26.3332 -2.5571 0 193 61
-3.9241 -26.3332 -2.4008 0 202 52
-3.9241 -26.1770 -2.4008 0 202 52
-4.0803 -26.0207 -2.4008 0 202 52
-3.2991 -27.1145 -2.7133 0 184 70
-3.4553 -26.9582 -2.7133 0 184 70
-3.1428 -27.1145 -2.7133 0 184 70
-2.9866 -27.1145 -2.7133 0 184 70
-3.1428 -26.9582 -2.7133 0 184 70
-3.4553 -26.8020 -2.7133 0 184 70
-2.9866 -26.8020 -2.7133 0 184 70
-3.1428 -26.6457 -2.7133 0 184 70
-2.9866 -26.6457 -2.5571 0 193 61
-2.8303 -26.8020 -2.7133 0 184 70
-2.8303 -26.6457 -2.7133 0 184 70
-4.2366 -25.8645 -2.4008 0 202 52
-4.2366 -25.7082 -2.4008 0 202 52
-4.5491 -25.5520 -2.4008 0 202 52
-4.5491 -25.3957 -2.4008 0 202 52
-3.6116 -25.7082 -2.4008 0 202 52
-3.4553 -25.8645 -2.4008 0 202 52
-3.4553 -25.3957 -2.4008 0 202 52
-4.5491 -25.2395 -2.2446 0 211 43
-4.5491 -24.9270 -2.2446 0 211 43
-4.5491 -24.7707 -2.2446 0 211 43
-3.4553 -25.2395 -2.2446 0 211 43
-3.4553 -24.9270 -2.2446 0 211 43
-7.0491 -28.9895 0.5679 114 140 0
-7.0491 -28.2082 0.7242 123 131 0
-2.0491 -29.4582 -2.8696 0 175 79
-1.7366 -29.6145 -2.8696 0 175 79
-2.2053 -29.3020 -2.8696 0 175 79
-1.8928 -29.1457 -2.8696 0 175 79
-1.4241 -29.4582 -2.8696 0 175 79
-1.2678 -29.6145 -2.8696 0 175 79
-1.5803 -29.3020 -2.8696 0 175 79
-2.0491 -28.9895 -2.8696 0 175 79
-2.2053 -28.8332 -2.8696 0 175 79
-0.9553 -28.5207 -2.7133 0 184 70
-2.2053 -28.2082 -2.8696 0 175 79
-1.7366 -28.2082 -2.7133 0 184 70
-1.8928 -27.8957 -2.8696 0 175 79
-1.1116 -28.3645 -2.7133 0 184 70
-1.1116 -28.2082 -2.7133 0 184 70
-1.4241 -28.0520 -2.7133 0 184 70
-1.4241 -27.8957 -2.7133 0 184 70
-1.8928 -27.7395 -2.7133 0 184 70
-0.7991 -28.0520 -2.7133 0 184 70
-0.9553 -27.8957 -2.7133 0 184 70
-0.7991 -26.3332 -2.4008 0 202 52
-7.2053 -24.4582 -2.2446 0 211 43
-7.2053 -24.1457 -2.2446 0 211 43
-6.4241 -24.4582 -2.0883 0 219 35
-6.2678 -24.4582 -2.2446 0 211 43
-6.5803 -24.3020 -2.0883 0 219 35
-7.2053 -23.9895 -2.2446 0 211 43
-7.2053 -23.8332 -2.2446 0 211 43
-6.7366 -23.6770 -2.0883 0 219 35
-6.7366 -23.5207 -2.0883 0 219 35
-6.5803 -23.9895 -2.0883 0 219 35
-6.5803 -23.8332 -2.0883 0 219 35
-5.3303 -24.4582 -2.2446 0 211 43
-5.3303 -24.1457 -2.0883 0 219 35
-5.4866 -23.9895 -2.0883 0 219 35
-5.6428 -23.8332 -2.0883 0 219 35
-5.7991 -23.5207 -2.0883 0 219 35
-5.6428 -23.6770 -2.0883 0 219 35
-7.2053 -23.2082 -2.0883 0 219 35
-7.2053 -23.0520 -2.0883 0 219 35
-6.1116 -23.2082 -2.0883 0 219 35
-7.2053 -22.4270 -1.9321 0 228 26
-6.4241 -22.5832 -1.9321 0 228 26
-6.2678 -22.7395 -1.9321 0 228 26
-6.1116 -22.7395 -1.9321 0 228 26
-6.2678 -22.2707 -1.7758 0 237 17
-5.9553 -23.3645 -2.0883 0 219 35
-4.5491 -24.4582 -2.2446 0 211 43
-4.5491 -24.3020 -2.0883 0 219 35
-4.2366 -23.8332 -1.9321 0 228 26
-4.2366 -23.6770 -1.9321 0 228 26
-3.4553 -24.6145 -2.2446 0 211 43
-3.2991 -24.4582 -2.0883 0 219 35
-3.2991 -24.1457 -2.0883 0 219 35
-4.2366 -23.3645 -1.9321 0 228 26
-4.2366 -23.2082 -1.9321 0 228 26
-6.5803 -21.8020 -1.7758 0 237 17
-7.2053 -21.4895 -1.7758 0 237 17
-7.2053 -20.7082 -1.6196 0 246 8
8.1072 -15.2395 -2.2446 0 211 43
8.1072 -15.0832 -2.2446 0 211 43
7.9509 -14.9270 -2.2446 0 211 43
7.9509 -14.7707 -2.2446 0 211 43
12.0134 -15.8645 -2.4008 0 202 52
12.0134 -15.7082 -2.4008 0 202 52
12.0134 -15.5520 -2.4008 0 202 52
12.0134 -15.3957 -2.4008 0 202 52
12.0134 -15.2395 -2.4008 0 202 52
12.0134 -15.0832 -2.4008 0 202 52
12.0134 -14.7707 -2.4008 0 202 52
12.1697 -15.0832 -2.4008 0 202 52
12.1697 -14.9270 -2.4008 0 202 52
-26.1116 -14.3020 -2.0883 0 219 35
-26.1116 -13.8332 -2.0883 0 219 35
-26.1116 -13.6770 -2.0883 0 219 35
-26.2678 -13.5207 -2.0883 0 219 35
-26.1116 -13.5207 -2.0883 0 219 35
-25.7991 -14.6145 -2.0883 0 219 35
-25.7991 -14.4582 -2.0883 0 219 35
-25.6428 -14.6145 -2.0883 0 219 35
-25.6428 -14.4582 -2.0883 0 219 35
-25.7991 -14.3020 -2.0883 0 219 35
-25.7991 -14.1457 -2.0883 0 219 35
-25.6428 -14.3020 -2.0883 0 219 35
-25.3303 -14.6145 -2.2446 0 211 43
-25.3303 -14.4582 -2.2446 0 211 43
-25.1741 -14.3020 -2.2446 0 211 43
-25.0178 -14.1457 -2.2446 0 211 43
-25.9553 -13.9895 -2.0883 0 219 35
-25.9553 -13.8332 -2.0883 0 219 35
-25.4866 -13.8332 -2.2446 0 211 43
-25.9553 -13.6770 -2.0883 0 219 35
-25.6428 -13.6770 -2.2446 0 211 43
-25.6428 -13.5207 -2.2446 0 211 43
-25.1741 -13.8332 -2.2446 0 211 43
-25.3303 -13.6770 -2.2446 0 211 43
-25.1741 -13.5207 -2.2446 0 211 43
-25.0178 -13.6770 -2.2446 0 211 43
-26.2678 -13.3645 -2.0883 0 219 35
-26.1116 -13.3645 -2.0883 0 219 35
-26.2678 -13.2082 -2.0883 0 219 35
-26.4241 -13.0520 -2.0883 0 219 35
-26.2678 -13.0520 -2.0883 0 219 35
-26.2678 -12.8957 -2.0883 0 219 35
-26.4241 -12.8957 -1.9321 0 228 26
-26.4241 -12.7395 -2.0883 0 219 35
-26.4241 -12.5832 -2.0883 0 219 35
-26.1116 -12.7395 -2.0883 0 219 35
-26.2678 -12.5832 -2.0883 0 219 35
-26.5803 -12.4270 -2.0883 0 219 35
-26.4241 -12.4270 -2.0883 0 219 35
-26.5803 -12.2707 -2.0883 0 219 35
-26.4241 -12.2707 -2.0883 0 219 35
-26.2678 -12.4270 -2.0883 0 219 35
-26.4241 -12.7395 -1.9321 0 228 26
-25.7991 -13.3645 -2.2446 0 211 43
-25.7991 -13.2082 -2.2446 0 211 43
-25.9553 -12.8957 -2.0883 0 219 35
-25.4866 -13.0520 -2.2446 0 211 43
-25.4866 -12.8957 -2.0883 0 219 35
-25.1741 -13.3645 -2.2446 0 211 43
-25.3303 -13.2082 -2.2446 0 211 43
-24.8616 -13.0520 -2.2446 0 211 43
-25.4866 -12.4270 -2.2446 0 211 43
-25.3303 -12.5832 -2.2446 0 211 43
-24.8616 -12.7395 -2.2446 0 211 43
-25.0178 -12.5832 -2.2446 0 211 43
-25.3303 -12.4270 -2.2446 0 211 43
-25.1741 -12.4270 -2.2446 0 211 43
-25.3303 -12.2707 -2.2446 0 211 43
-25.0178 -12.4270 -2.2446 0 211 43
-24.8616 -12.4270 -2.2446 0 211 43
-25.0178 -12.2707 -2.2446 0 211 43
-24.5491 -14.6145 -2.4008 0 202 52
-24.2366 -14.3020 -2.4008 0 202 52
-24.2366 -14.1457 -2.4008 0 202 52
-23.6116 -14.6145 -2.5571 0 193 61
-23.6116 -14.4582 -2.5571 0 193 61
-23.9241 -14.1457 -2.4008 0 202 52
-23.6116 -14.1457 -2.4008 0 202 52
-24.5491 -13.9895 -2.4008 0 202 52
-24.7053 -13.8332 -2.4008 0 202 52
-24.2366 -13.8332 -2.4008 0 202 52
-24.3928 -13.6770 -2.4008 0 202 52
-24.0803 -13.9895 -2.4008 0 202 52
-23.7678 -13.8332 -2.4008 0 202 52
-23.9241 -13.6770 -2.4008 0 202 52
-24.0803 -13.5207 -2.4008 0 202 52
-23.1428 -14.6145 -2.5571 0 193 61
-23.4553 -14.3020 -2.5571 0 193 61
-22.5178 -14.4582 -2.7133 0 184 70
-22.6741 -14.1457 -2.7133 0 184 70
-23.2991 -13.6770 -2.5571 0 193 61
-24.7053 -13.3645 -2.4008 0 202 52
-24.5491 -13.0520 -2.4008 0 202 52
-23.9241 -12.8957 -2.5571 0 193 61
-23.7678 -13.0520 -2.5571 0 193 61
-24.2366 -12.5832 -2.4008 0 202 52
-24.2366 -12.4270 -2.4008 0 202 52
-23.4553 -13.3645 -2.5571 0 193 61
-24.7053 -14.4582 -2.2446 0 211 43
-24.7053 -13.2082 -2.2446 0 211 43
-24.3928 -13.2082 -2.2446 0 211 43
-24.5491 -13.0520 -2.2446 0 211 43
-24.7053 -12.8957 -2.2446 0 211 43
-24.3928 -12.8957 -2.2446 0 211 43
-24.5491 -12.7395 -2.2446 0 211 43
-24.5491 -12.5832 -2.2446 0 211 43
-26.7366 -11.6457 -2.0883 0 219 35
-26.5803 -12.1145 -2.0883 0 219 35
-26.4241 -12.1145 -2.0883 0 219 35
-26.5803 -11.9582 -2.0883 0 219 35
-26.5803 -11.8020 -2.0883 0 219 35
-26.2678 -11.8020 -2.0883 0 219 35
-26.2678 -11.6457 -2.0883 0 219 35
-26.7366 -11.4895 -2.0883 0 219 35
-26.7366 -11.3332 -2.0883 0 219 35
-26.7366 -11.1770 -2.0883 0 219 35
-26.8928 -11.0207 -2.0883 0 219 35
-26.4241 -11.4895 -2.0883 0 219 35
-26.4241 -11.3332 -2.0883 0 219 35
-26.1116 -11.3332 -2.0883 0 219 35
-26.5803 -11.0207 -2.0883 0 219 35
-26.1116 -11.1770 -2.0883 0 219 35
-26.2678 -11.0207 -2.0883 0 219 35
-26.1116 -11.0207 -2.0883 0 219 35
-25.7991 -11.9582 -2.2446 0 211 43
-25.9553 -12.1145 -2.0883 0 219 35
-25.4866 -12.1145 -2.2446 0 211 43
-25.6428 -11.9582 -2.2446 0 211 43
-25.4866 -11.9582 -2.2446 0 211 43
-25.7991 -11.8020 -2.2446 0 211 43
-25.4866 -11.8020 -2.2446 0 211 43
-25.6428 -11.6457 -2.2446 0 211 43
-25.3303 -12.1145 -2.2446 0 211 43
-25.1741 -11.9582 -2.2446 0 211 43
-25.0178 -12.1145 -2.2446 0 211 43
-25.3303 -11.8020 -2.2446 0 211 43
-25.3303 -11.6457 -2.0883 0 219 35
-25.7991 -11.4895 -2.0883 0 219 35
-25.9553 -11.3332 -2.0883 0 219 35
-25.4866 -11.4895 -2.0883 0 219 35
-25.6428 -11.3332 -2.0883 0 219 35
-25.9553 -11.1770 -2.0883 0 219 35
-25.7991 -11.0207 -2.0883 0 219 35
-25.6428 -11.1770 -2.0883 0 219 35
-25.3303 -11.4895 -2.0883 0 219 35
-24.8616 -11.1770 -2.2446 0 211 43
-25.0178 -11.0207 -2.2446 0 211 43
-26.7366 -10.7082 -2.0883 0 219 35
-26.7366 -10.5520 -2.0883 0 219 35
-26.7366 -10.3957 -2.0883 0 219 35
-26.5803 -10.7082 -2.0883 0 219 35
-26.2678 -10.8645 -2.0883 0 219 35
-26.1116 -10.8645 -2.0883 0 219 35
-26.2678 -10.7082 -2.0883 0 219 35
-26.4241 -10.5520 -2.0883 0 219 35
-26.1116 -10.5520 -2.0883 0 219 35
-26.1116 -10.3957 -2.0883 0 219 35
-26.7366 -10.2395 -2.0883 0 219 35
-26.5803 -10.2395 -2.0883 0 219 35
-26.2678 -10.2395 -2.0883 0 219 35
-26.1116 -10.2395 -2.0883 0 219 35
-26.2678 -10.0832 -2.0883 0 219 35
-26.4241 -9.9270 -2.0883 0 219 35
-26.4241 -9.7707 -2.0883 0 219 35
-26.2678 -9.9270 -2.0883 0 219 35
-26.1116 -9.9270 -2.0883 0 219 35
-26.1116 -9.7707 -2.0883 0 219 35
-26.5803 -10.0832 -1.9321 0 228 26
-25.9553 -10.8645 -2.0883 0 219 35
-25.7991 -10.8645 -2.0883 0 219 35
-25.9553 -10.7082 -2.0883 0 219 35
-25.9553 -10.5520 -2.0883 0 219 35
-25.9553 -10.3957 -2.0883 0 219 35
-25.4866 -10.3957 -2.2446 0 211 43
-25.1741 -10.8645 -2.2446 0 211 43
-25.3303 -10.7082 -2.2446 0 211 43
-25.3303 -10.5520 -2.2446 0 211 43
-25.9553 -10.2395 -2.0883 0 219 35
-25.9553 -10.0832 -2.0883 0 219 35
-25.4866 -10.2395 -2.2446 0 211 43
-25.6428 -10.0832 -2.2446 0 211 43
-25.7991 -9.9270 -2.2446 0 211 43
-25.9553 -9.9270 -2.0883 0 219 35
-25.7991 -9.7707 -2.0883 0 219 35
-25.6428 -9.9270 -2.2446 0 211 43
-24.5491 -12.1145 -2.4008 0 202 52
-24.2366 -11.9582 -2.4008 0 202 52
-24.7053 -11.6457 -2.4008 0 202 52
-24.3928 -11.8020 -2.4008 0 202 52
-24.0803 -12.1145 -2.4008 0 202 52
-24.7053 -11.3332 -2.4008 0 202 52
-22.5178 -11.8020 -2.7133 0 184 70
-23.1428 -11.1770 -2.5571 0 193 61
-22.8303 -11.4895 -2.5571 0 193 61
-22.6741 -11.1770 -2.5571 0 193 61
-23.6116 -10.0832 -2.4008 0 202 52
-23.6116 -9.9270 -2.4008 0 202 52
-22.9866 -10.8645 -2.5571 0 193 61
-23.1428 -10.5520 -2.5571 0 193 61
-23.4553 -10.2395 -2.5571 0 193 61
-20.3303 -14.6145 -3.0258 0 167 87
-20.9553 -13.8332 -3.0258 0 167 87
-21.4241 -13.2082 -2.8696 0 175 79
-21.8928 -12.7395 -2.8696 0 175 79
-22.0491 -12.4270 -2.7133 0 184 70
-19.8616 -12.5832 -3.1821 0 158 96
-19.3928 -13.5207 -3.3383 0 149 105
-18.2991 -14.6145 -3.4946 0 140 114
-19.5491 -13.0520 -3.1821 0 158 96
-19.7053 -12.5832 -3.1821 0 158 96
-17.3616 -13.2082 -3.4946 0 140 114
-17.6741 -12.5832 -3.4946 0 140 114
-20.0178 -12.1145 -3.1821 0 158 96
-20.3303 -11.6457 -3.0258 0 167 87
-21.2678 -10.5520 -2.8696 0 175 79
-21.4241 -10.2395 -2.8696 0 175 79
-20.9553 -10.8645 -3.0258 0 167 87
-18.9241 -11.0207 -3.1821 0 158 96
-18.2991 -11.8020 -3.3383 0 149 105
-19.2366 -10.5520 -3.1821 0 158 96
-19.7053 -9.9270 -3.0258 0 167 87
-18.2991 -9.7707 -3.3383 0 149 105
-17.8303 -10.2395 -3.3383 0 149 105
-18.7678 -14.6145 -0.6821 43 211 0
-18.9241 -14.1457 -0.6821 43 211 0
-18.7678 -14.3020 -0.6821 43 211 0
-18.6116 -14.3020 -0.5258 52 202 0
-19.2366 -13.5207 -0.6821 43 211 0
-18.9241 -13.9895 -0.6821 43 211 0
-18.9241 -13.8332 -0.6821 43 211 0
-18.9241 -13.8332 -0.5258 52 202 0
-18.6116 -13.8332 -0.6821 43 211 0
-18.7678 -13.9895 -0.5258 52 202 0
-18.7678 -13.8332 -0.5258 52 202 0
-19.0803 -13.6770 -0.6821 43 211 0
-19.0803 -13.5207 -0.6821 43 211 0
-18.9241 -13.5207 -0.5258 52 202 0
-18.7678 -13.5207 -0.6821 43 211 0
-18.6116 -13.5207 -0.6821 43 211 0
-18.4553 -14.4582 -0.6821 43 211 0
-18.2991 -14.4582 -0.6821 43 211 0
-18.4553 -14.4582 -0.5258 52 202 0
-17.9866 -14.4582 -0.5258 52 202 0
-18.4553 -14.3020 -0.6821 43 211 0
-18.4553 -14.1457 -0.6821 43 211 0
-18.2991 -14.1457 -0.5258 52 202 0
-18.1428 -14.3020 -0.5258 52 202 0
-17.3616 -14.4582 -0.5258 52 202 0
-17.6741 -14.3020 -0.6821 43 211 0
-17.6741 -14.1457 -0.6821 43 211 0
-17.3616 -14.1457 -0.6821 43 211 0
-17.3616 -14.1457 -0.5258 52 202 0
-18.4553 -13.9895 -0.6821 43 211 0
-18.4553 -13.8332 -0.6821 43 211 0
-18.2991 -13.8332 -0.6821 43 211 0
-18.4553 -13.9895 -0.5258 52 202 0
-18.4553 -13.6770 -0.6821 43 211 0
-17.9866 -13.6770 -0.6821 43 211 0
-17.6741 -13.8332 -0.6821 43 211 0
-17.3616 -13.9895 -0.6821 43 211 0
-17.5178 -13.9895 -0.5258 52 202 0
-17.6741 -13.6770 -0.6821 43 211 0
-17.6741 -13.5207 -0.6821 43 211 0
-17.3616 -13.6770 -0.6821 43 211 0
-19.2366 -13.2082 -0.6821 43 211 0
-19.2366 -13.0520 -0.5258 52 202 0
-19.2366 -12.8957 -0.5258 52 202 0
-19.0803 -13.3645 -0.6821 43 211 0
-19.0803 -13.2082 -0.6821 43 211 0
-19.0803 -13.3645 -0.5258 52 202 0
-19.0803 -13.2082 -0.5258 52 202 0
-18.6116 -13.3645 -0.6821 43 211 0
-18.6116 -13.2082 -0.6821 43 211 0
-18.7678 -13.2082 -0.5258 52 202 0
-19.0803 -13.0520 -0.6821 43 211 0
-19.0803 -12.8957 -0.6821 43 211 0
-18.6116 -13.0520 -0.6821 43 211 0
-18.6116 -12.8957 -0.6821 43 211 0
-19.3928 -12.5832 -0.5258 52 202 0
-19.2366 -12.5832 -0.5258 52 202 0
-19.2366 -12.4270 -0.5258 52 202 0
-19.3928 -12.2707 -0.5258 52 202 0
-19.2366 -12.2707 -0.5258 52 202 0
-19.0803 -12.7395 -0.6821 43 211 0
-18.9241 -12.5832 -0.6821 43 211 0
-18.7678 -12.7395 -0.5258 52 202 0
-18.9241 -12.2707 -0.6821 43 211 0
-19.0803 -12.4270 -0.5258 52 202 0
-18.6116 -12.4270 -0.5258 52 202 0
-18.6116 -12.2707 -0.5258 52 202 0
-18.4553 -13.3645 -0.6821 43 211 0
-18.4553 -13.2082 -0.6821 43 211 0
-18.1428 -13.3645 -0.6821 43 211 0
-18.1428 -13.2082 -0.6821 43 211 0
-18.4553 -13.0520 -0.6821 43 211 0
-18.4553 -12.8957 -0.6821 43 211 0
-18.1428 -12.8957 -0.5258 52 202 0
-17.3616 -13.3645 -0.5258 52 202 0
-17.6741 -13.0520 -0.5258 52 202 0
-17.8303 -12.8957 -0.5258 52 202 0
-17.6741 -12.8957 -0.5258 52 202 0
-17.3616 -13.0520 -0.5258 52 202 0
-18.4553 -12.5832 -0.6821 43 211 0
-18.1428 -12.7395 -0.5258 52 202 0
-18.4553 -12.4270 -0.5258 52 202 0
-18.1428 -12.2707 -0.5258 52 202 0
-17.8303 -12.7395 -0.5258 52 202 0
-17.6741 -12.7395 -0.5258 52 202 0
-17.8303 -12.5832 -0.5258 52 202 0
-17.3616 -12.7395 -0.5258 52 202 0
-17.6741 -12.4270 -0.5258 52 202 0
-17.3616 -12.2707 -0.5258 52 202 0
-20.3303 -11.0207 -0.5258 52 202 0
-19.8616 -11.0207 -0.5258 52 202 0
-20.3303 -10.5520 -0.5258 52 202 0
-20.3303 -10.3957 -0.5258 52 202 0
-19.8616 -10.5520 -0.5258 52 202 0
-20.4866 -9.7707 -0.5258 52 202 0
-20.3303 -10.2395 -0.5258 52 202 0
-20.3303 -10.0832 -0.5258 52 202 0
-19.8616 -10.2395 -0.5258 52 202 0
-20.0178 -10.0832 -0.5258 52 202 0
-19.8616 -10.0832 -0.5258 52 202 0
-20.3303 -9.9270 -0.5258 52 202 0
-20.3303 -9.7707 -0.5258 52 202 0
-20.1741 -9.7707 -0.5258 52 202 0
-19.8616 -10.0832 -0.3696 61 193 0
-20.0178 -9.9270 -0.3696 61 193 0
-20.0178 -9.7707 -0.3696 61 193 0
-19.8616 -9.7707 -0.3696 61 193 0
-19.5491 -11.9582 -0.5258 52 202 0
-19.3928 -12.1145 -0.5258 52 202 0
-19.2366 -12.1145 -0.5258 52 202 0
-19.2366 -11.9582 -0.5258 52 202 0
-19.5491 -11.6457 -0.5258 52 202 0
-19.3928 -11.8020 -0.5258 52 202 0
-19.2366 -11.8020 -0.5258 52 202 0
-19.3928 -11.6457 -0.5258 52 202 0
-19.2366 -11.6457 -0.5258 52 202 0
-19.0803 -12.1145 -0.5258 52 202 0
-18.7678 -11.9582 -0.5258 52 202 0
-18.9241 -11.6457 -0.5258 52 202 0
-18.7678 -11.8020 -0.5258 52 202 0
-19.7053 -11.4895 -0.5258 52 202 0
-19.7053 -11.3332 -0.5258 52 202 0
-19.2366 -11.4895 -0.5258 52 202 0
-19.7053 -11.1770 -0.5258 52 202 0
-19.7053 -11.0207 -0.5258 52 202 0
-19.3928 -11.1770 -0.5258 52 202 0
-19.2366 -11.1770 -0.5258 52 202 0
-19.2366 -11.0207 -0.5258 52 202 0
-18.9241 -11.3332 -0.5258 52 202 0
-18.6116 -11.4895 -0.5258 52 202 0
-18.6116 -11.3332 -0.5258 52 202 0
-18.9241 -11.1770 -0.5258 52 202 0
-18.7678 -11.0207 -0.5258 52 202 0
-19.3928 -11.0207 -0.3696 61 193 0
-18.4553 -11.9582 -0.5258 52 202 0
-18.1428 -12.1145 -0.5258 52 202 0
-18.1428 -11.9582 -0.5258 52 202 0
-18.4553 -11.8020 -0.5258 52 202 0
-18.4553 -11.6457 -0.5258 52 202 0
-18.1428 -11.6457 -0.5258 52 202 0
-17.8303 -12.1145 -0.5258 52 202 0
-17.5178 -11.9582 -0.5258 52 202 0
-17.6741 -11.8020 -0.5258 52 202 0
-17.8303 -11.6457 -0.5258 52 202 0
-17.5178 -11.6457 -0.5258 52 202 0
-18.4553 -11.4895 -0.5258 52 202 0
-18.4553 -11.3332 -0.5258 52 202 0
-17.9866 -11.4895 -0.5258 52 202 0
-18.1428 -11.3332 -0.5258 52 202 0
-18.4553 -11.0207 -0.5258 52 202 0
-18.2991 -11.0207 -0.5258 52 202 0
-18.1428 -11.1770 -0.5258 52 202 0
-17.6741 -11.3332 -0.5258 52 202 0
-17.5178 -11.4895 -0.5258 52 202 0
-17.8303 -11.0207 -0.5258 52 202 0
-17.3616 -11.0207 -0.5258 52 202 0
-18.1428 -11.1770 -0.3696 61 193 0
-17.8303 -11.3332 -0.3696 61 193 0
-17.5178 -11.3332 -0.3696 61 193 0
-17.8303 -11.0207 -0.3696 61 193 0
-17.5178 -11.1770 -0.3696 61 193 0
-19.7053 -10.8645 -0.5258 52 202 0
-19.7053 -10.7082 -0.5258 52 202 0
-19.2366 -10.7082 -0.5258 52 202 0
-19.5491 -10.3957 -0.5258 52 202 0
-19.3928 -10.5520 -0.5258 52 202 0
-18.9241 -10.7082 -0.5258 52 202 0
-18.9241 -10.5520 -0.5258 52 202 0
-18.6116 -10.5520 -0.5258 52 202 0
-19.5491 -10.2395 -0.5258 52 202 0
-19.5491 -10.0832 -0.5258 52 202 0
-19.2366 -10.0832 -0.5258 52 202 0
-19.3928 -9.7707 -0.5258 52 202 0
-19.0803 -10.2395 -0.5258 52 202 0
-18.6116 -10.2395 -0.5258 52 202 0
-18.7678 -10.0832 -0.5258 52 202 0
-18.9241 -9.9270 -0.5258 52 202 0
-18.9241 -9.7707 -0.5258 52 202 0
-18.6116 -9.9270 -0.5258 52 202 0
-18.7678 -9.7707 -0.5258 52 202 0
-19.3928 -10.8645 -0.3696 61 193 0
-19.3928 -10.7082 -0.3696 61 193 0
-19.5491 -10.3957 -0.3696 61 193 0
-19.3928 -10.5520 -0.3696 61 193 0
-19.5491 -10.2395 -0.3696 61 193 0
-19.3928 -10.2395 -0.3696 61 193 0
-19.3928 -10.0832 -0.3696 61 193 0
-19.5491 -9.9270 -0.3696 61 193 0
-19.5491 -9.7707 -0.3696 61 193 0
-18.9241 -10.2395 -0.3696 61 193 0
-18.9241 -10.0832 -0.3696 61 193 0
-18.6116 -10.2395 -0.3696 61 193 0
-18.6116 -10.0832 -0.3696 61 193 0
-18.9241 -9.7707 -0.3696 61 193 0
-18.6116 -9.7707 -0.3696 61 193 0
-18.4553 -10.8645 -0.5258 52 202 0
-18.4553 -10.7082 -0.5258 52 202 0
-17.9866 -10.8645 -0.5258 52 202 0
-18.1428 -10.7082 -0.5258 52 202 0
-18.2991 -10.5520 -0.5258 52 202 0
-17.6741 -10.7082 -0.5258 52 202 0
-17.5178 -10.8645 -0.5258 52 202 0
-17.8303 -10.3957 -0.5258 52 202 0
-18.4553 -10.2395 -0.5258 52 202 0
-18.4553 -10.0832 -0.5258 52 202 0
-17.9866 -10.2395 -0.5258 52 202 0
-18.1428 -10.0832 -0.5258 52 202 0
-18.2991 -9.9270 -0.5258 52 202 0
-17.3616 -10.2395 -0.5258 52 202 0
-17.5178 -10.0832 -0.5258 52 202 0
-17.6741 -9.7707 -0.5258 52 202 0
-18.4553 -10.8645 -0.3696 61 193 0
-18.1428 -10.8645 -0.3696 61 193 0
-18.4553 -10.5520 -0.3696 61 193 0
-18.1428 -10.5520 -0.3696 61 193 0
-18.1428 -10.3957 -0.3696 61 193 0
-17.8303 -10.7082 -0.3696 61 193 0
-17.5178 -10.8645 -0.3696 61 193 0
-17.8303 -10.5520 -0.3696 61 193 0
-17.5178 -10.5520 -0.3696 61 193 0
-18.1428 -10.0832 -0.3696 61 193 0
-18.1428 -9.7707 -0.3696 61 193 0
-17.8303 -10.2395 -0.3696 61 193 0
-17.3616 -10.2395 -0.3696 61 193 0
-17.6741 -9.7707 -0.2133 70 184 0
-17.3616 -9.7707 -0.3696 61 193 0
-26.7366 -9.3020 -2.0883 0 219 35
-26.7366 -9.1457 -2.0883 0 219 35
-26.7366 -9.6145 -1.9321 0 228 26
-26.5803 -9.6145 -2.0883 0 219 35
-26.4241 -9.6145 -2.0883 0 219 35
-26.5803 -9.4582 -2.0883 0 219 35
-26.4241 -9.4582 -2.0883 0 219 35
-26.2678 -9.6145 -2.0883 0 219 35
-26.1116 -9.6145 -2.0883 0 219 35
-26.2678 -9.4582 -2.0883 0 219 35
-26.5803 -9.3020 -2.0883 0 219 35
-26.5803 -9.1457 -2.0883 0 219 35
-26.1116 -9.3020 -2.0883 0 219 35
-26.1116 -9.1457 -2.0883 0 219 35
-26.2678 -9.4582 -1.9321 0 228 26
-26.4241 -9.3020 -1.9321 0 228 26
-26.4241 -9.1457 -1.9321 0 228 26
-26.7366 -8.9895 -2.0883 0 219 35
-26.7366 -8.8332 -2.0883 0 219 35
-26.8928 -8.6770 -2.0883 0 219 35
-26.7366 -8.6770 -2.0883 0 219 35
-26.7366 -8.5207 -1.9321 0 228 26
-26.1116 -8.5207 -2.0883 0 219 35
-26.5803 -8.9895 -1.9321 0 228 26
-26.4241 -8.9895 -1.9321 0 228 26
-26.5803 -8.8332 -1.9321 0 228 26
-26.5803 -8.6770 -1.9321 0 228 26
-25.9553 -9.6145 -2.0883 0 219 35
-25.9553 -9.4582 -2.0883 0 219 35
-25.7991 -9.1457 -2.0883 0 219 35
-25.7991 -8.9895 -2.0883 0 219 35
-25.9553 -8.8332 -2.0883 0 219 35
-25.9553 -8.6770 -2.0883 0 219 35
-26.7366 -8.3645 -1.9321 0 228 26
-26.7366 -8.2082 -1.9321 0 228 26
-26.1116 -8.3645 -2.0883 0 219 35
-26.2678 -8.2082 -2.0883 0 219 35
-26.4241 -7.8957 -2.0883 0 219 35
-26.2678 -8.0520 -2.0883 0 219 35
-26.2678 -7.8957 -2.0883 0 219 35
-26.4241 -7.7395 -2.0883 0 219 35
-26.4241 -7.5832 -2.0883 0 219 35
-26.5803 -7.4270 -2.0883 0 219 35
-26.5803 -7.2707 -2.0883 0 219 35
-24.8616 -8.0520 -2.2446 0 211 43
-24.8616 -7.8957 -2.2446 0 211 43
-25.0178 -7.7395 -2.2446 0 211 43
-25.0178 -7.5832 -2.2446 0 211 43
-25.1741 -7.4270 -2.2446 0 211 43
-25.1741 -7.2707 -2.0883 0 219 35
-23.9241 -9.6145 -2.4008 0 202 52
-24.0803 -9.3020 -2.4008 0 202 52
-24.0803 -9.1457 -2.4008 0 202 52
-24.2366 -8.9895 -2.4008 0 202 52
-22.5178 -8.9895 -2.7133 0 184 70
-22.6741 -8.6770 -2.7133 0 184 70
-22.8303 -8.5207 -2.7133 0 184 70
-23.6116 -7.2707 -2.5571 0 193 61
-22.9866 -8.2082 -2.5571 0 193 61
-23.1428 -7.8957 -2.5571 0 193 61
-23.2991 -7.7395 -2.5571 0 193 61
-23.4553 -7.5832 -2.5571 0 193 61
-24.5491 -8.5207 -2.2446 0 211 43
-24.7053 -8.3645 -2.2446 0 211 43
-24.7053 -8.2082 -2.2446 0 211 43
-27.0491 -4.7707 -3.1821 0 158 96
-26.5803 -7.1145 -2.0883 0 219 35
-25.0178 -7.1145 -2.2446 0 211 43
-24.8616 -7.1145 -2.2446 0 211 43
-25.0178 -6.9582 -2.2446 0 211 43
-25.1741 -6.6457 -2.0883 0 219 35
-25.0178 -6.8020 -2.2446 0 211 43
-25.0178 -6.6457 -2.0883 0 219 35
-25.1741 -6.4895 -2.0883 0 219 35
-25.1741 -6.3332 -2.0883 0 219 35
-25.1741 -6.1770 -2.0883 0 219 35
-25.3303 -6.0207 -2.0883 0 219 35
-25.4866 -5.7082 -2.0883 0 219 35
-25.4866 -5.5520 -2.0883 0 219 35
-25.6428 -5.3957 -2.0883 0 219 35
-25.4866 -5.3957 -2.0883 0 219 35
-25.6428 -5.2395 -2.0883 0 219 35
-25.6428 -5.0832 -2.0883 0 219 35
-25.6428 -4.9270 -2.0883 0 219 35
-23.9241 -6.9582 -2.4008 0 202 52
-23.6116 -7.1145 -2.5571 0 193 61
-24.0803 -6.6457 -2.4008 0 202 52
-24.2366 -6.3332 -2.4008 0 202 52
-24.0803 -6.4895 -2.4008 0 202 52
-24.0803 -6.3332 -2.4008 0 202 52
-23.7678 -6.3332 -2.4008 0 202 52
-23.9241 -6.1770 -2.4008 0 202 52
-23.9241 -6.0207 -2.4008 0 202 52
-22.3616 -6.4895 -2.5571 0 193 61
-22.5178 -6.3332 -2.5571 0 193 61
-22.5178 -6.0207 -2.5571 0 193 61
-24.2366 -5.5520 -2.4008 0 202 52
-24.2366 -5.3957 -2.4008 0 202 52
-24.0803 -5.8645 -2.4008 0 202 52
-24.0803 -5.7082 -2.4008 0 202 52
-24.0803 -5.5520 -2.4008 0 202 52
-24.2366 -5.2395 -2.4008 0 202 52
-24.3928 -5.0832 -2.4008 0 202 52
-24.3928 -4.9270 -2.4008 0 202 52
-22.6741 -5.8645 -2.5571 0 193 61
-22.8303 -5.7082 -2.4008 0 202 52
-22.3616 -5.8645 -2.5571 0 193 61
-22.5178 -5.5520 -2.5571 0 193 61
-22.5178 -5.3957 -2.5571 0 193 61
-22.9866 -4.7707 -2.4008 0 202 52
-22.6741 -5.2395 -2.4008 0 202 52
-22.8303 -5.0832 -2.4008 0 202 52
-24.3928 -4.7707 -2.2446 0 211 43
-22.0491 -9.6145 -2.7133 0 184 70
-22.2053 -9.3020 -2.7133 0 184 70
-20.1741 -9.4582 -3.0258 0 167 87
-20.7991 -8.5207 -2.8696 0 175 79
-20.3303 -8.9895 -2.8696 0 175 79
-21.1116 -8.0520 -2.7133 0 184 70
-21.7366 -7.4270 -2.7133 0 184 70
-21.4241 -7.7395 -2.7133 0 184 70
-19.8616 -7.7395 -3.0258 0 167 87
-20.3303 -7.2707 -2.8696 0 175 79
-18.6116 -9.3020 -3.1821 0 158 96
-19.2366 -8.6770 -3.1821 0 158 96
-17.5178 -8.5207 -3.3383 0 149 105
-19.5491 -8.2082 -3.0258 0 167 87
-18.6116 -7.2707 -3.1821 0 158 96
-17.9866 -8.0520 -3.1821 0 158 96
-21.8928 -7.1145 -2.7133 0 184 70
-22.0491 -6.8020 -2.5571 0 193 61
-21.1116 -6.4895 -2.8696 0 175 79
-21.4241 -6.0207 -2.7133 0 184 70
-21.2678 -6.1770 -2.7133 0 184 70
-20.7991 -6.8020 -2.8696 0 175 79
-20.9553 -6.0207 -2.8696 0 175 79
-21.1116 -5.8645 -2.7133 0 184 70
-21.4241 -5.3957 -2.7133 0 184 70
-21.2678 -5.5520 -2.7133 0 184 70
-21.7366 -4.9270 -2.7133 0 184 70
-21.7366 -4.7707 -2.7133 0 184 70
-21.5803 -5.0832 -2.7133 0 184 70
-20.0178 -4.9270 -2.8696 0 175 79
-18.9241 -6.9582 -3.0258 0 167 87
-19.0803 -6.4895 -3.0258 0 167 87
-18.7678 -6.3332 -3.0258 0 167 87
-19.0803 -6.0207 -3.0258 0 167 87
-18.4553 -6.8020 -3.1821 0 158 96
-19.2366 -5.7082 -3.0258 0 167 87
-19.7053 -5.2395 -2.8696 0 175 79
-17.3616 -5.8645 -3.1821 0 158 96
