ply
format ascii 1.0
comment OctoMap 3D export - Moose Robot
comment Resolution: 0.100 m
element vertex 1439
property float x
property float y
property float z
property uchar red
property uchar green
property uchar blue
end_header
-13.2031 -11.1719 -2.7344 0 99 155
-13.2031 -11.1719 -2.5781 0 106 148
-13.2031 -11.0156 -2.5781 0 106 148
-13.3594 -10.8594 -2.7344 0 99 155
-13.3594 -10.8594 -2.5781 0 106 148
-12.8906 -11.1719 -2.5781 0 106 148
-12.4219 -12.4219 -2.7344 0 99 155
-12.4219 -11.9531 -2.5781 0 106 148
-11.0156 -12.5781 -2.4219 0 113 141
-12.5781 -12.2656 -2.4219 0 113 141
-12.7344 -12.1094 -2.4219 0 113 141
-13.9844 -10.5469 -2.4219 0 113 141
-13.8281 -10.5469 -2.4219 0 113 141
-14.2969 -10.0781 -2.4219 0 113 141
-13.9844 -10.0781 -2.2656 0 120 134
-13.5156 -10.8594 -2.4219 0 113 141
-13.3594 -10.8594 -2.4219 0 113 141
-13.0469 -11.1719 -2.4219 0 113 141
-13.0469 -11.0156 -2.4219 0 113 141
-12.8906 -11.0156 -2.4219 0 113 141
-12.7344 -11.1719 -2.4219 0 113 141
-13.2031 -10.5469 -2.4219 0 113 141
-13.3594 -10.3906 -2.4219 0 113 141
-13.6719 -10.2344 -2.4219 0 113 141
-13.6719 -10.0781 -2.4219 0 113 141
-13.3594 -10.2344 -2.4219 0 113 141
-12.5781 -10.5469 -2.4219 0 113 141
-11.7969 -12.4219 -2.4219 0 113 141
-11.7969 -12.1094 -2.4219 0 113 141
-11.7969 -11.7969 -2.4219 0 113 141
-13.2031 -13.0469 0.3906 0 240 14
-12.7344 -12.7344 0.5469 0 247 7
-12.5781 -12.7344 0.5469 0 247 7
-11.6406 -14.4531 0.3906 0 240 14
-10.7031 -14.6094 0.3906 0 240 14
-10.3906 -13.9844 0.3906 0 240 14
-11.0156 -12.7344 0.3906 0 240 14
-10.8594 -12.7344 0.3906 0 240 14
-10.5469 -12.7344 0.3906 0 240 14
-13.9844 -11.9531 0.3906 0 240 14
-14.4531 -11.4844 0.7031 0 255 0
-14.1406 -11.4844 0.7031 0 255 0
-14.2969 -11.3281 0.8594 7 247 0
-12.7344 -11.6406 0.5469 0 247 7
-14.4531 -11.1719 0.7031 0 255 0
-14.6094 -11.0156 0.7031 0 255 0
-14.7656 -10.8594 0.7031 0 255 0
-14.7656 -10.3906 0.7031 0 255 0
-14.6094 -10.5469 0.7031 0 255 0
-14.2969 -10.5469 0.7031 0 255 0
-13.2031 -11.0156 0.3906 0 240 14
-13.2031 -11.0156 0.5469 0 247 7
-13.6719 -10.7031 0.3906 0 240 14
-13.5156 -10.7031 0.5469 0 247 7
-13.0469 -10.8594 0.5469 0 247 7
-12.8906 -10.7031 0.5469 0 247 7
-12.7344 -10.7031 0.5469 0 247 7
-13.6719 -10.5469 0.5469 0 247 7
-12.5781 -11.0156 0.7031 0 255 0
-13.0469 -10.8594 0.7031 0 255 0
-13.5156 -10.5469 0.7031 0 255 0
-13.6719 -10.3906 0.7031 0 255 0
-13.5156 -10.3906 0.7031 0 255 0
-12.4219 -11.7969 0.3906 0 240 14
-11.3281 -11.7969 0.2344 0 233 21
-11.3281 -11.7969 0.5469 0 247 7
-10.7031 -12.4219 0.2344 0 233 21
-10.7031 -12.2656 0.3906 0 240 14
-10.2344 -12.4219 0.2344 0 233 21
-11.1719 -11.6406 0.2344 0 233 21
-10.7031 -11.4844 0.5469 0 247 7
-10.0781 -11.7969 0.2344 0 233 21
-10.2344 -11.3281 0.2344 0 233 21
-10.2344 -11.6406 0.3906 0 240 14
-10.5469 -11.4844 0.3906 0 240 14
-12.1094 -10.7031 0.5469 0 247 7
-11.6406 -11.0156 0.5469 0 247 7
-11.7969 -10.8594 0.5469 0 247 7
-12.2656 -10.5469 0.5469 0 247 7
-11.3281 -10.3906 0.2344 0 233 21
-11.4844 -10.2344 0.2344 0 233 21
-11.6406 -10.0781 0.3906 0 240 14
-11.4844 -10.0781 0.3906 0 240 14
-11.3281 -10.0781 0.3906 0 240 14
-11.7969 -10.7031 0.7031 0 255 0
-11.7969 -10.2344 0.7031 0 255 0
-10.8594 -11.0156 0.2344 0 233 21
-11.0156 -10.8594 0.2344 0 233 21
-11.0156 -10.7031 0.2344 0 233 21
-11.1719 -11.1719 0.3906 0 240 14
-11.0156 -11.1719 0.3906 0 240 14
-10.7031 -10.8594 0.3906 0 240 14
-10.8594 -10.7031 0.3906 0 240 14
-10.3906 -11.1719 0.2344 0 233 21
-10.5469 -11.0156 0.2344 0 233 21
-10.5469 -11.0156 0.3906 0 240 14
-10.3906 -11.0156 0.3906 0 240 14
-10.0781 -11.0156 0.3906 0 240 14
-10.5469 -10.8594 0.3906 0 240 14
-10.5469 -10.7031 0.5469 0 247 7
-11.1719 -10.5469 0.2344 0 233 21
-11.0156 -10.5469 0.3906 0 240 14
-11.0156 -10.3906 0.3906 0 240 14
-11.0156 -10.3906 0.5469 0 247 7
-10.8594 -10.5469 0.3906 0 240 14
-10.8594 -10.5469 0.5469 0 247 7
-10.7031 -10.5469 0.5469 0 247 7
-10.8594 -10.3906 0.5469 0 247 7
-11.1719 -10.2344 0.3906 0 240 14
-11.1719 -10.0781 0.3906 0 240 14
-11.0156 -10.0781 0.3906 0 240 14
-11.1719 -10.2344 0.5469 0 247 7
-11.0156 -10.2344 0.5469 0 247 7
-11.1719 -10.0781 0.5469 0 247 7
-10.8594 -10.2344 0.3906 0 240 14
-11.4844 -12.5781 3.5156 127 127 0
-10.8594 -12.7344 3.3594 120 134 0
-11.1719 -12.7344 3.5156 127 127 0
-10.2344 -12.5781 3.2031 113 141 0
-13.0469 -10.7031 3.6719 134 120 0
-12.5781 -10.5469 3.5156 127 127 0
-14.1406 -10.0781 3.9844 148 106 0
-13.6719 -10.2344 3.9844 148 106 0
-11.3281 -11.7969 3.2031 113 141 0
-11.4844 -11.3281 3.2031 113 141 0
-11.1719 -11.9531 3.2031 113 141 0
-10.3906 -12.4219 3.3594 120 134 0
-11.0156 -11.6406 3.2031 113 141 0
-11.0156 -11.4844 3.2031 113 141 0
-11.0156 -11.3281 3.2031 113 141 0
-11.9531 -11.1719 3.3594 120 134 0
-11.9531 -11.0156 3.3594 120 134 0
-12.1094 -10.7031 3.3594 120 134 0
-11.9531 -10.8594 3.5156 127 127 0
-11.9531 -10.7031 3.5156 127 127 0
-11.6406 -10.7031 3.3594 120 134 0
-11.7969 -11.0156 3.5156 127 127 0
-11.6406 -11.0156 3.5156 127 127 0
-11.4844 -11.1719 3.5156 127 127 0
-11.7969 -10.8594 3.5156 127 127 0
-12.1094 -10.3906 3.3594 120 134 0
-12.2656 -10.5469 3.5156 127 127 0
-11.9531 -10.5469 3.5156 127 127 0
-11.6406 -10.5469 3.3594 120 134 0
-10.7031 -11.0156 3.0469 106 148 0
-10.8594 -10.3906 3.0469 106 148 0
-10.3906 -10.2344 3.0469 106 148 0
-11.0156 -11.1719 3.2031 113 141 0
-11.1719 -11.0156 3.2031 113 141 0
-11.0156 -11.0156 3.3594 120 134 0
-10.8594 -11.0156 3.2031 113 141 0
-10.8594 -11.1719 3.3594 120 134 0
-10.8594 -11.0156 3.3594 120 134 0
-11.0156 -10.7031 3.2031 113 141 0
-11.0156 -10.8594 3.3594 120 134 0
-11.0156 -10.7031 3.3594 120 134 0
-10.8594 -10.8594 3.2031 113 141 0
-10.8594 -10.7031 3.3594 120 134 0
-11.0156 -10.5469 3.2031 113 141 0
-11.1719 -10.3906 3.2031 113 141 0
-11.1719 -10.5469 3.3594 120 134 0
-11.1719 -10.2344 3.2031 113 141 0
-6.3281 -12.7344 -2.7344 0 99 155
-6.9531 -10.7031 -4.9219 0 0 255
-6.4844 -10.7031 -4.7656 0 7 247
-6.0156 -11.3281 -2.5781 0 106 148
-6.0156 -11.1719 -2.4219 0 113 141
-5.7031 -11.1719 -2.4219 0 113 141
-5.3906 -11.1719 -2.2656 0 120 134
-5.0781 -10.2344 -2.1094 0 127 127
-3.3594 -14.1406 -2.7344 0 99 155
-4.4531 -12.4219 -4.9219 0 0 255
-4.6094 -11.3281 -4.9219 0 0 255
-4.2969 -11.7969 -4.9219 0 0 255
-4.1406 -11.6406 -4.9219 0 0 255
-3.8281 -11.3281 -4.9219 0 0 255
-3.8281 -11.4844 -4.7656 0 7 247
-3.6719 -12.2656 -4.7656 0 7 247
-3.5156 -11.9531 -4.9219 0 0 255
-3.2031 -11.4844 -4.7656 0 7 247
-3.3594 -11.7969 -4.6094 0 14 240
-4.7656 -11.1719 -4.9219 0 0 255
-4.6094 -11.1719 -4.7656 0 7 247
-3.8281 -11.0156 -4.7656 0 7 247
-4.2969 -11.0156 -4.6094 0 14 240
-3.8281 -11.1719 -4.6094 0 14 240
-3.9844 -10.5469 -4.4531 0 21 233
-4.1406 -10.2344 -4.4531 0 21 233
-4.1406 -10.0781 -4.4531 0 21 233
-4.1406 -10.3906 -4.2969 0 28 226
-3.9844 -10.3906 -4.2969 0 28 226
-3.8281 -10.3906 -4.2969 0 28 226
-3.5156 -11.1719 -4.7656 0 7 247
-3.5156 -11.0156 -4.7656 0 7 247
-3.3594 -11.0156 -4.6094 0 14 240
-3.5156 -10.8594 -4.6094 0 14 240
-3.5156 -10.7031 -4.4531 0 21 233
-3.2031 -10.8594 -4.6094 0 14 240
-3.2031 -10.7031 -4.6094 0 14 240
-3.0469 -11.1719 -4.6094 0 14 240
-2.8906 -11.0156 -4.4531 0 21 233
-2.7344 -10.8594 -4.4531 0 21 233
-3.6719 -10.3906 -4.4531 0 21 233
-3.2031 -10.5469 -4.4531 0 21 233
-3.0469 -10.2344 -4.4531 0 21 233
-2.5781 -11.1719 -4.2969 0 28 226
-2.7344 -10.7031 -4.2969 0 28 226
-3.5156 -10.0781 -4.2969 0 28 226
-2.7344 -10.0781 -4.2969 0 28 226
-1.6406 -12.1094 -4.7656 0 7 247
-1.9531 -11.4844 -4.4531 0 21 233
-1.3281 -11.7969 -4.6094 0 14 240
-1.1719 -11.3281 -4.4531 0 21 233
-2.2656 -11.0156 -4.4531 0 21 233
-2.2656 -11.1719 -4.2969 0 28 226
-2.4219 -11.0156 -4.2969 0 28 226
-1.9531 -10.7031 -4.2969 0 28 226
-2.4219 -10.2344 -4.2969 0 28 226
-2.4219 -10.0781 -4.1406 0 35 219
-1.9531 -10.0781 -3.8281 0 49 205
-1.6406 -10.0781 -4.1406 0 35 219
-1.6406 -10.3906 -3.9844 0 42 212
-1.7969 -10.0781 -3.9844 0 42 212
-1.0156 -11.0156 -4.2969 0 28 226
-0.2344 -11.0156 -4.2969 0 28 226
-0.7031 -10.3906 -3.9844 0 42 212
-0.0781 -10.3906 -3.9844 0 42 212
-3.3594 -12.5781 -2.4219 0 113 141
-2.5781 -13.2031 -0.3906 0 205 49
-2.7344 -12.8906 -0.3906 0 205 49
-2.5781 -12.8906 -0.3906 0 205 49
-2.8906 -12.7344 -0.3906 0 205 49
-3.0469 -12.5781 -0.3906 0 205 49
-2.8906 -12.5781 -0.3906 0 205 49
-2.7344 -12.7344 -0.3906 0 205 49
-1.9531 -13.3594 -0.3906 0 205 49
-2.1094 -13.2031 -0.3906 0 205 49
-1.7969 -13.5156 -0.3906 0 205 49
-2.2656 -13.0469 -0.3906 0 205 49
-0.0781 -13.6719 -0.3906 0 205 49
-0.2344 -13.5156 -0.3906 0 205 49
-4.9219 -11.7969 -2.4219 0 113 141
-4.7656 -10.8594 -2.2656 0 120 134
-4.4531 -10.0781 -2.2656 0 120 134
-3.9844 -10.3906 -2.1094 0 127 127
-3.2031 -12.4219 -0.3906 0 205 49
-3.0469 -12.2656 -0.3906 0 205 49
-2.8906 -12.4219 -0.2344 0 212 42
-4.2969 -10.2344 -0.0781 0 219 35
-3.6719 -10.2344 -0.0781 0 219 35
-3.3594 -10.0781 -0.0781 0 219 35
-2.1094 -10.3906 -2.1094 0 127 127
-0.3906 -10.2344 -2.2656 0 120 134
-0.2344 -10.2344 -2.2656 0 120 134
-0.0781 -10.2344 -2.2656 0 120 134
-1.7969 -10.0781 -0.2344 0 212 42
-9.2969 -16.3281 0.0781 0 226 28
-9.4531 -14.7656 0.2344 0 233 21
-7.5781 -14.4531 0.0781 0 226 28
-8.3594 -14.2969 0.0781 0 226 28
-8.5156 -13.9844 0.2344 0 233 21
-7.7344 -14.2969 0.0781 0 226 28
-8.3594 -12.8906 0.2344 0 233 21
-8.6719 -12.5781 0.2344 0 233 21
-8.5156 -12.5781 0.2344 0 233 21
-8.8281 -12.4219 0.2344 0 233 21
-8.9844 -11.7969 0.2344 0 233 21
-9.7656 -11.0156 0.3906 0 240 14
-9.6094 -11.0156 0.3906 0 240 14
-8.8281 -11.1719 0.2344 0 233 21
-9.2969 -10.8594 0.3906 0 240 14
-6.6406 -10.2344 0.0781 0 226 28
-5.3906 -11.0156 0.0781 0 226 28
-5.2344 -11.0156 0.0781 0 226 28
-5.5469 -10.8594 0.0781 0 226 28
-8.8281 -13.2031 3.0469 106 148 0
-9.1406 -12.8906 3.0469 106 148 0
-9.6094 -13.2031 3.2031 113 141 0
-9.2969 -13.6719 3.2031 113 141 0
-9.6094 -13.0469 3.2031 113 141 0
-8.5156 -13.2031 3.0469 106 148 0
-9.1406 -11.7969 2.8906 99 155 0
-9.2969 -11.6406 3.0469 106 148 0
-8.9844 -11.7969 2.8906 99 155 0
-3.8281 -11.4844 1.9531 56 198 0
-3.3594 -11.4844 1.7969 49 205 0
-3.6719 -11.4844 1.9531 56 198 0
-3.5156 -11.4844 1.9531 56 198 0
-4.4531 -11.0156 1.9531 56 198 0
-4.6094 -10.8594 1.9531 56 198 0
-4.2969 -11.0156 1.9531 56 198 0
-3.9844 -11.0156 1.9531 56 198 0
-4.2969 -10.8594 2.1094 63 191 0
-4.7656 -10.3906 2.1094 63 191 0
-4.4531 -10.5469 1.9531 56 198 0
-4.4531 -10.5469 2.1094 63 191 0
-3.9844 -10.5469 1.9531 56 198 0
-3.5156 -10.0781 1.7969 49 205 0
-2.7344 -10.3906 1.6406 42 212 0
-2.5781 -10.0781 1.6406 42 212 0
-1.7969 -12.2656 1.9531 56 198 0
-1.6406 -12.1094 1.9531 56 198 0
-1.9531 -10.0781 1.4844 35 219 0
-2.2656 -10.0781 1.6406 42 212 0
-1.6406 -10.3906 1.4844 35 219 0
-1.7969 -10.2344 1.4844 35 219 0
-1.6406 -10.2344 1.4844 35 219 0
-0.0781 -10.7031 1.6406 42 212 0
-1.0156 -10.5469 1.6406 42 212 0
-0.3906 -10.2344 1.4844 35 219 0
-0.2344 -10.5469 1.6406 42 212 0
-18.2031 -6.0156 -1.6406 0 148 106
-18.3594 -5.8594 -1.6406 0 148 106
-17.8906 -6.1719 -1.6406 0 148 106
-18.5156 -5.5469 -1.6406 0 148 106
-18.6719 -5.3906 -1.6406 0 148 106
-14.6094 -9.6094 -2.4219 0 113 141
-13.8281 -9.7656 -2.4219 0 113 141
-13.9844 -9.4531 -2.2656 0 120 134
-13.8281 -9.4531 -2.2656 0 120 134
-14.7656 -8.8281 -2.2656 0 120 134
-14.4531 -8.8281 -2.2656 0 120 134
-14.1406 -9.2969 -2.2656 0 120 134
-14.1406 -9.1406 -2.2656 0 120 134
-13.9844 -9.2969 -2.2656 0 120 134
-14.2969 -8.9844 -2.2656 0 120 134
-14.1406 -8.9844 -2.2656 0 120 134
-14.1406 -8.8281 -2.2656 0 120 134
-13.9844 -8.9844 -2.2656 0 120 134
-13.9844 -8.8281 -2.2656 0 120 134
-13.6719 -9.7656 -2.4219 0 113 141
-13.6719 -9.7656 -2.2656 0 120 134
-13.2031 -9.9219 -2.2656 0 120 134
-13.5156 -9.6094 -2.2656 0 120 134
-13.5156 -9.4531 -2.2656 0 120 134
-13.2031 -9.6094 -2.2656 0 120 134
-13.5156 -9.2969 -2.2656 0 120 134
-13.3594 -8.9844 -2.2656 0 120 134
-13.2031 -9.1406 -2.1094 0 127 127
-14.9219 -8.6719 -2.2656 0 120 134
-14.7656 -8.5156 -2.1094 0 127 127
-14.4531 -8.5156 -2.1094 0 127 127
-14.7656 -8.3594 -2.1094 0 127 127
-14.6094 -8.3594 -2.1094 0 127 127
-14.4531 -8.3594 -2.1094 0 127 127
-14.4531 -8.2031 -2.1094 0 127 127
-14.2969 -8.6719 -2.1094 0 127 127
-14.1406 -8.6719 -2.1094 0 127 127
-14.2969 -8.5156 -2.1094 0 127 127
-14.1406 -8.5156 -2.1094 0 127 127
-13.9844 -8.6719 -2.1094 0 127 127
-13.8281 -8.5156 -2.1094 0 127 127
-14.1406 -8.3594 -2.1094 0 127 127
-14.4531 -8.0469 -2.1094 0 127 127
-14.6094 -7.8906 -2.1094 0 127 127
-12.4219 -9.6094 -2.2656 0 120 134
-11.9531 -9.6094 -2.1094 0 127 127
-12.4219 -9.2969 -2.2656 0 120 134
-18.8281 -3.2031 -1.4844 0 155 99
-18.9844 -3.0469 -1.4844 0 155 99
-19.1406 -2.7344 -1.4844 0 155 99
-19.2969 -2.5781 -1.3281 0 162 92
-18.6719 -3.3594 -1.4844 0 155 99
-19.4531 -2.2656 -1.3281 0 162 92
-19.6094 -2.1094 -1.3281 0 162 92
-19.4531 -1.9531 -1.3281 0 162 92
-19.1406 -2.4219 -1.3281 0 162 92
-19.1406 -2.2656 -1.3281 0 162 92
-19.1406 -2.1094 -1.4844 0 155 99
-19.1406 -1.9531 -1.4844 0 155 99
-19.1406 -1.9531 -1.3281 0 162 92
-18.9844 -2.1094 -1.3281 0 162 92
-18.9844 -1.9531 -1.3281 0 162 92
-19.6094 -1.6406 -1.4844 0 155 99
-19.4531 -1.7969 -1.3281 0 162 92
-19.7656 -1.3281 -1.4844 0 155 99
-19.6094 -1.4844 -1.3281 0 162 92
-19.4531 -1.4844 -1.3281 0 162 92
-19.6094 -1.3281 -1.3281 0 162 92
-19.2969 -1.7969 -1.4844 0 155 99
-19.2969 -1.7969 -1.3281 0 162 92
-19.1406 -1.7969 -1.3281 0 162 92
-19.2969 -1.6406 -1.3281 0 162 92
-19.9219 -1.1719 -1.3281 0 162 92
-19.7656 -1.0156 -1.3281 0 162 92
-19.6094 -1.1719 -1.3281 0 162 92
-19.9219 -0.7031 -1.3281 0 162 92
-19.4531 -1.4844 -1.1719 0 170 85
-19.6094 -1.3281 -1.1719 0 170 85
-19.7656 -1.0156 -1.1719 0 170 85
-19.6094 -1.1719 -1.1719 0 170 85
-19.6094 -1.0156 -1.1719 0 170 85
-19.9219 -0.8594 -1.1719 0 170 85
-19.7656 -0.7031 -1.1719 0 170 85
-15.3906 -9.6094 0.7031 0 255 0
-15.3906 -9.4531 0.8594 7 247 0
-15.0781 -9.6094 0.8594 7 247 0
-15.2344 -9.4531 0.8594 7 247 0
-15.0781 -9.6094 1.0156 14 240 0
-15.2344 -9.4531 1.0156 14 240 0
-15.7031 -8.9844 1.0156 14 240 0
-15.5469 -9.2969 1.0156 14 240 0
-15.3906 -9.2969 1.0156 14 240 0
-15.5469 -9.1406 1.0156 14 240 0
-15.2344 -9.2969 1.0156 14 240 0
-15.2344 -9.1406 1.0156 14 240 0
-15.0781 -7.5781 0.8594 7 247 0
-14.9219 -9.7656 1.0156 14 240 0
-13.8281 -9.4531 0.7031 0 255 0
-14.4531 -9.1406 0.8594 7 247 0
-14.4531 -8.8281 0.7031 0 255 0
-14.2969 -9.1406 0.7031 0 255 0
-13.8281 -9.2969 0.8594 7 247 0
-14.1406 -8.8281 0.8594 7 247 0
-13.5156 -9.9219 0.5469 0 247 7
-13.6719 -9.7656 0.5469 0 247 7
-13.0469 -9.7656 0.5469 0 247 7
-13.3594 -8.8281 0.5469 0 247 7
-12.7344 -8.8281 0.5469 0 247 7
-13.6719 -9.7656 0.7031 0 255 0
-13.3594 -9.7656 0.7031 0 255 0
-13.5156 -9.6094 0.7031 0 255 0
-13.6719 -9.6094 0.8594 7 247 0
-13.5156 -9.6094 0.8594 7 247 0
-13.2031 -9.6094 0.7031 0 255 0
-13.2031 -9.6094 0.8594 7 247 0
-13.0469 -9.6094 0.7031 0 255 0
-12.8906 -9.6094 0.7031 0 255 0
-12.7344 -9.6094 0.7031 0 255 0
-13.3594 -9.2969 0.7031 0 255 0
-13.3594 -8.9844 0.7031 0 255 0
-13.0469 -9.2969 0.7031 0 255 0
-14.6094 -8.5156 0.7031 0 255 0
-14.4531 -8.6719 0.8594 7 247 0
-14.7656 -8.3594 0.7031 0 255 0
-14.7656 -8.2031 0.8594 7 247 0
-14.6094 -8.2031 0.8594 7 247 0
-14.6094 -8.5156 1.0156 14 240 0
-14.4531 -8.3594 1.0156 14 240 0
-14.6094 -8.2031 1.0156 14 240 0
-14.1406 -8.6719 0.8594 7 247 0
-14.2969 -8.5156 0.8594 7 247 0
-14.9219 -7.8906 0.8594 7 247 0
-14.7656 -7.8906 0.8594 7 247 0
-14.6094 -8.0469 0.8594 7 247 0
-14.6094 -7.8906 0.8594 7 247 0
-14.4531 -7.8906 0.8594 7 247 0
-14.7656 -8.0469 1.0156 14 240 0
-14.7656 -7.8906 1.0156 14 240 0
-14.9219 -7.7344 1.0156 14 240 0
-14.7656 -7.7344 1.0156 14 240 0
-14.9219 -7.5781 1.0156 14 240 0
-14.9219 -7.5781 1.1719 21 233 0
-14.4531 -7.7344 1.0156 14 240 0
-14.4531 -7.5781 1.0156 14 240 0
-13.9844 -7.8906 0.8594 7 247 0
-14.2969 -7.8906 1.0156 14 240 0
-12.8906 -8.6719 0.5469 0 247 7
-13.3594 -8.6719 0.7031 0 255 0
-13.2031 -8.6719 0.7031 0 255 0
-13.2031 -8.5156 0.8594 7 247 0
-13.3594 -8.2031 0.8594 7 247 0
-12.8906 -8.6719 0.7031 0 255 0
-12.5781 -8.6719 0.7031 0 255 0
-12.7344 -8.5156 0.7031 0 255 0
-12.7344 -8.5156 0.8594 7 247 0
-12.5781 -8.5156 0.8594 7 247 0
-12.5781 -8.2031 0.7031 0 255 0
-13.0469 -7.5781 0.7031 0 255 0
-12.8906 -7.5781 0.8594 7 247 0
-12.2656 -9.7656 0.5469 0 247 7
-12.2656 -9.6094 0.5469 0 247 7
-12.4219 -9.4531 0.5469 0 247 7
-11.6406 -9.9219 0.3906 0 240 14
-11.6406 -9.7656 0.5469 0 247 7
-11.3281 -9.9219 0.5469 0 247 7
-11.4844 -9.7656 0.5469 0 247 7
-11.3281 -9.7656 0.5469 0 247 7
-11.6406 -9.6094 0.5469 0 247 7
-11.7969 -9.4531 0.5469 0 247 7
-11.9531 -9.9219 0.7031 0 255 0
-10.2344 -9.6094 0.3906 0 240 14
-11.0156 -8.8281 0.5469 0 247 7
-10.8594 -8.8281 0.3906 0 240 14
-12.4219 -8.5156 0.7031 0 255 0
-12.2656 -8.5156 0.8594 7 247 0
-10.8594 -8.6719 0.5469 0 247 7
-14.9219 -7.2656 1.1719 21 233 0
-14.6094 -7.2656 1.0156 14 240 0
-14.2969 -7.4219 1.0156 14 240 0
-14.2969 -7.2656 1.1719 21 233 0
-13.2031 -7.1094 0.8594 7 247 0
-13.5156 -9.7656 3.5156 127 127 0
-13.2031 -9.7656 3.5156 127 127 0
-12.8906 -9.9219 3.3594 120 134 0
-12.5781 -9.6094 3.6719 134 120 0
-12.7344 -9.2969 3.6719 134 120 0
-12.7344 -8.5156 3.3594 120 134 0
-12.8906 -8.3594 3.3594 120 134 0
-12.8906 -8.2031 3.3594 120 134 0
-12.7344 -8.5156 3.5156 127 127 0
-12.7344 -8.2031 3.5156 127 127 0
-12.5781 -8.2031 3.5156 127 127 0
-12.8906 -7.8906 3.3594 120 134 0
-13.0469 -7.7344 3.3594 120 134 0
-13.0469 -7.5781 3.3594 120 134 0
-12.8906 -7.8906 3.5156 127 127 0
-12.8906 -8.0469 3.6719 134 120 0
-12.7344 -8.0469 3.5156 127 127 0
-12.7344 -7.8906 3.6719 134 120 0
-12.5781 -7.8906 3.6719 134 120 0
-12.8906 -7.7344 3.5156 127 127 0
-12.5781 -7.7344 3.6719 134 120 0
-12.7344 -7.5781 3.6719 134 120 0
-14.1406 -8.8281 3.8281 141 113 0
-14.9219 -8.2031 3.8281 141 113 0
-14.6094 -8.5156 4.1406 155 99 0
-14.7656 -8.3594 4.2969 162 92 0
-14.9219 -8.0469 3.8281 141 113 0
-14.7656 -8.0469 3.9844 148 106 0
-14.9219 -7.8906 3.9844 148 106 0
-14.9219 -7.8906 4.1406 155 99 0
-14.7656 -8.0469 4.2969 162 92 0
-12.4219 -9.9219 3.3594 120 134 0
-12.4219 -9.7656 3.3594 120 134 0
-12.2656 -9.7656 3.5156 127 127 0
-11.9531 -9.9219 3.5156 127 127 0
-12.1094 -9.7656 3.6719 134 120 0
-12.2656 -9.6094 3.5156 127 127 0
-12.4219 -9.4531 3.5156 127 127 0
-12.4219 -9.6094 3.6719 134 120 0
-12.2656 -9.6094 3.6719 134 120 0
-11.3281 -9.7656 3.3594 120 134 0
-11.4844 -9.6094 3.3594 120 134 0
-11.4844 -9.4531 3.3594 120 134 0
-12.1094 -9.2969 3.3594 120 134 0
-12.1094 -9.1406 3.3594 120 134 0
-12.2656 -8.8281 3.3594 120 134 0
-12.1094 -8.9844 3.3594 120 134 0
-12.4219 -9.2969 3.5156 127 127 0
-11.9531 -8.9844 3.5156 127 127 0
-11.6406 -9.1406 3.3594 120 134 0
-11.4844 -9.2969 3.3594 120 134 0
-11.0156 -9.9219 3.3594 120 134 0
-11.1719 -9.7656 3.3594 120 134 0
-11.1719 -9.4531 3.2031 113 141 0
-11.1719 -9.6094 3.3594 120 134 0
-12.4219 -8.5156 3.2031 113 141 0
-12.4219 -8.6719 3.3594 120 134 0
-12.4219 -8.3594 3.3594 120 134 0
-12.4219 -8.2031 3.3594 120 134 0
-12.2656 -8.5156 3.6719 134 120 0
-12.1094 -8.5156 3.5156 127 127 0
-12.2656 -8.2031 3.5156 127 127 0
-12.2656 -8.2031 3.6719 134 120 0
-11.7969 -8.5156 3.5156 127 127 0
-12.4219 -8.0469 3.3594 120 134 0
-12.4219 -8.0469 3.6719 134 120 0
-13.0469 -7.4219 3.3594 120 134 0
-12.8906 -7.4219 3.5156 127 127 0
-13.0469 -7.2656 3.5156 127 127 0
-12.8906 -7.4219 3.6719 134 120 0
-12.8906 -7.2656 3.6719 134 120 0
-12.5781 -7.4219 3.6719 134 120 0
-13.0469 -7.1094 3.5156 127 127 0
-19.9219 -1.0156 2.4219 77 177 0
-19.4531 -1.0156 2.2656 70 184 0
-19.6094 -0.8594 2.2656 70 184 0
-19.1406 -1.1719 2.2656 70 184 0
-19.1406 -0.8594 2.2656 70 184 0
-19.2969 -0.7031 2.2656 70 184 0
-18.9844 -0.7031 2.2656 70 184 0
-19.7656 -0.3906 2.4219 77 177 0
-19.4531 -0.5469 2.4219 77 177 0
-19.9219 -0.0781 2.4219 77 177 0
-19.4531 -0.2344 2.4219 77 177 0
-18.9844 -0.0781 2.1094 63 191 0
-19.1406 -0.5469 2.2656 70 184 0
-19.1406 -0.3906 2.4219 77 177 0
-19.1406 -0.2344 2.4219 77 177 0
-19.2969 -0.0781 2.4219 77 177 0
-5.0781 -5.3906 -2.7344 0 99 155
-5.2344 -5.0781 -2.7344 0 99 155
-5.0781 -5.0781 -2.7344 0 99 155
-5.3906 -9.7656 -2.1094 0 127 127
-5.2344 -9.1406 -1.9531 0 134 120
-5.0781 -9.1406 -1.9531 0 134 120
-5.0781 -8.8281 -1.9531 0 134 120
-5.0781 -8.8281 -1.7969 0 141 113
-5.7031 -8.5156 -1.9531 0 134 120
-5.5469 -8.5156 -1.9531 0 134 120
-5.3906 -8.5156 -1.9531 0 134 120
-5.0781 -8.3594 -1.9531 0 134 120
-5.8594 -8.5156 -1.7969 0 141 113
-5.8594 -8.2031 -1.7969 0 141 113
-5.5469 -8.5156 -1.7969 0 141 113
-5.5469 -8.2031 -1.7969 0 141 113
-5.2344 -8.3594 -1.7969 0 141 113
-5.0781 -8.3594 -1.7969 0 141 113
-5.2344 -8.2031 -1.7969 0 141 113
-5.8594 -8.0469 -1.7969 0 141 113
-5.8594 -7.7344 -1.7969 0 141 113
-5.3906 -7.8906 -1.6406 0 148 106
-5.0781 -8.0469 -1.6406 0 148 106
-5.0781 -7.8906 -1.6406 0 148 106
-5.3906 -7.5781 -1.6406 0 148 106
-5.8594 -8.8281 -0.0781 0 219 35
-5.0781 -9.2969 -0.0781 0 219 35
-5.7031 -7.2656 -1.6406 0 148 106
-5.0781 -6.0156 -1.3281 0 162 92
-4.9219 -9.9219 -4.2969 0 28 226
-4.9219 -9.7656 -4.2969 0 28 226
-4.7656 -9.7656 -4.2969 0 28 226
-4.6094 -9.9219 -4.2969 0 28 226
-4.4531 -9.9219 -4.2969 0 28 226
-4.6094 -9.7656 -4.2969 0 28 226
-4.4531 -9.7656 -4.1406 0 35 219
-4.7656 -9.4531 -4.2969 0 28 226
-4.6094 -9.4531 -4.2969 0 28 226
-4.4531 -9.6094 -4.1406 0 35 219
-3.8281 -9.9219 -4.2969 0 28 226
-4.9219 -9.2969 -4.2969 0 28 226
-3.9844 -8.8281 -3.9844 0 42 212
-3.9844 -8.8281 -3.8281 0 49 205
-3.8281 -8.8281 -3.8281 0 49 205
-3.2031 -9.6094 -3.9844 0 42 212
-3.3594 -9.4531 -3.9844 0 42 212
-2.7344 -9.7656 -4.1406 0 35 219
-2.5781 -9.6094 -4.1406 0 35 219
-3.9844 -8.5156 -3.8281 0 49 205
-3.3594 -8.2031 -3.6719 0 56 198
-2.5781 -8.5156 -3.6719 0 56 198
-3.0469 -7.8906 -3.3594 0 70 184
-3.0469 -7.5781 -3.2031 0 77 177
-2.1094 -9.7656 -4.1406 0 35 219
-1.7969 -9.7656 -4.1406 0 35 219
-1.4844 -9.4531 -3.9844 0 42 212
-1.4844 -9.4531 -3.8281 0 49 205
-2.4219 -9.2969 -3.9844 0 42 212
-2.2656 -9.1406 -3.9844 0 42 212
-1.9531 -9.2969 -3.8281 0 49 205
-2.1094 -8.8281 -3.8281 0 49 205
-1.3281 -9.1406 -3.5156 0 63 191
-1.6406 -8.8281 -3.6719 0 56 198
-0.5469 -9.1406 -3.5156 0 63 191
-2.1094 -8.5156 -3.6719 0 56 198
-1.9531 -8.2031 -3.2031 0 77 177
-1.3281 -8.6719 -3.6719 0 56 198
-1.4844 -8.5156 -3.5156 0 63 191
-1.7969 -8.2031 -3.5156 0 63 191
-1.3281 -8.3594 -3.5156 0 63 191
-1.7969 -8.3594 -3.3594 0 70 184
-2.1094 -7.7344 -3.2031 0 77 177
-1.6406 -8.0469 -3.5156 0 63 191
-1.6406 -7.8906 -3.2031 0 77 177
-1.6406 -7.5781 -3.3594 0 70 184
-1.4844 -7.7344 -3.3594 0 70 184
-1.1719 -8.6719 -3.5156 0 63 191
-1.1719 -8.3594 -3.6719 0 56 198
-1.1719 -8.2031 -3.5156 0 63 191
-1.0156 -8.2031 -3.5156 0 63 191
-1.0156 -8.2031 -3.3594 0 70 184
-0.0781 -8.5156 -3.5156 0 63 191
-0.3906 -8.3594 -3.2031 0 77 177
-0.0781 -8.3594 -3.3594 0 70 184
-0.8594 -8.0469 -3.5156 0 63 191
-1.1719 -8.0469 -3.3594 0 70 184
-1.0156 -8.0469 -3.3594 0 70 184
-0.8594 -7.8906 -3.3594 0 70 184
-0.7031 -7.8906 -3.3594 0 70 184
-0.8594 -7.8906 -3.2031 0 77 177
-0.7031 -7.7344 -3.2031 0 77 177
-0.2344 -8.0469 -3.2031 0 77 177
-0.5469 -7.7344 -3.3594 0 70 184
-0.3906 -7.5781 -3.2031 0 77 177
-0.7031 -7.5781 -3.0469 0 85 170
-3.8281 -7.1094 -3.2031 0 77 177
-3.8281 -6.6406 -3.0469 0 85 170
-3.6719 -7.1094 -3.2031 0 77 177
-3.6719 -6.9531 -3.2031 0 77 177
-2.8906 -6.9531 -2.7344 0 99 155
-3.6719 -6.6406 -3.0469 0 85 170
-4.4531 -5.7031 -2.7344 0 99 155
-4.2969 -5.7031 -2.7344 0 99 155
-4.6094 -5.5469 -2.7344 0 99 155
-4.4531 -5.5469 -2.7344 0 99 155
-4.6094 -5.3906 -2.7344 0 99 155
-4.4531 -5.3906 -2.7344 0 99 155
-4.7656 -5.2344 -2.7344 0 99 155
-4.9219 -5.0781 -2.7344 0 99 155
-4.7656 -5.2344 -2.5781 0 106 148
-4.6094 -5.2344 -2.7344 0 99 155
-4.6094 -5.2344 -2.5781 0 106 148
-4.4531 -5.0781 -2.5781 0 106 148
-4.2969 -5.5469 -2.7344 0 99 155
-4.1406 -5.5469 -2.7344 0 99 155
-4.2969 -5.3906 -2.7344 0 99 155
-4.1406 -5.3906 -2.7344 0 99 155
-3.9844 -5.5469 -2.7344 0 99 155
-3.9844 -5.5469 -2.5781 0 106 148
-1.4844 -7.2656 -3.2031 0 77 177
-2.4219 -6.9531 -2.7344 0 99 155
-1.3281 -6.9531 -3.0469 0 85 170
-0.2344 -7.2656 -3.2031 0 77 177
-0.5469 -7.2656 -3.0469 0 85 170
-0.3906 -7.1094 -2.8906 0 92 162
-0.2344 -7.1094 -3.0469 0 85 170
-0.0781 -6.9531 -3.0469 0 85 170
-0.3906 -6.7969 -2.8906 0 92 162
-0.2344 -6.7969 -2.7344 0 99 155
-0.0781 -6.7969 -2.7344 0 99 155
-4.7656 -9.9219 -2.2656 0 120 134
-4.7656 -9.7656 -2.1094 0 127 127
-4.6094 -9.7656 -2.1094 0 127 127
-4.4531 -9.7656 -2.1094 0 127 127
-4.7656 -9.4531 -2.1094 0 127 127
-4.6094 -9.6094 -2.1094 0 127 127
-4.2969 -9.9219 -2.1094 0 127 127
-4.2969 -9.6094 -1.9531 0 134 120
-4.9219 -8.8281 -1.9531 0 134 120
-3.9844 -9.2969 -1.9531 0 134 120
-3.9844 -8.9844 -1.9531 0 134 120
-3.3594 -9.4531 -1.9531 0 134 120
-3.6719 -9.1406 -1.9531 0 134 120
-2.5781 -9.1406 -1.7969 0 141 113
-3.0469 -8.8281 -1.6406 0 148 106
-4.9219 -8.6719 -1.9531 0 134 120
-4.7656 -8.6719 -1.9531 0 134 120
-4.2969 -8.6719 -1.9531 0 134 120
-4.1406 -8.6719 -1.9531 0 134 120
-4.9219 -8.2031 -1.7969 0 141 113
-4.6094 -8.3594 -1.7969 0 141 113
-4.1406 -8.5156 -1.7969 0 141 113
-3.9844 -8.6719 -1.7969 0 141 113
-4.2969 -8.3594 -1.7969 0 141 113
-4.2969 -8.2031 -1.7969 0 141 113
-4.2969 -8.0469 -1.6406 0 148 106
-3.0469 -8.5156 -1.7969 0 141 113
-3.0469 -8.2031 -1.7969 0 141 113
-2.8906 -8.2031 -1.7969 0 141 113
-3.6719 -8.0469 -1.7969 0 141 113
-3.2031 -7.5781 -1.6406 0 148 106
-3.3594 -7.7344 -1.4844 0 155 99
-3.0469 -7.8906 -1.7969 0 141 113
-2.8906 -8.0469 -1.6406 0 148 106
-2.5781 -7.8906 -1.6406 0 148 106
-3.0469 -7.7344 -1.6406 0 148 106
-3.0469 -7.5781 -1.6406 0 148 106
-2.5781 -7.7344 -1.6406 0 148 106
-3.0469 -7.7344 -1.4844 0 155 99
-2.8906 -7.7344 -1.4844 0 155 99
-4.9219 -9.4531 -0.0781 0 219 35
-4.9219 -9.2969 -0.0781 0 219 35
-3.8281 -8.8281 -0.0781 0 219 35
-3.3594 -9.1406 -0.0781 0 219 35
-3.5156 -8.9844 -0.0781 0 219 35
-3.5156 -8.8281 -0.0781 0 219 35
-3.3594 -8.8281 -0.2344 0 212 42
-3.2031 -8.8281 -0.2344 0 212 42
-2.8906 -9.1406 -0.2344 0 212 42
-2.8906 -9.2969 -0.0781 0 219 35
-2.7344 -9.1406 -0.2344 0 212 42
-3.0469 -8.8281 -0.2344 0 212 42
-3.0469 -8.8281 -0.0781 0 219 35
-2.7344 -8.9844 -0.0781 0 219 35
-4.4531 -8.2031 -0.0781 0 219 35
-4.2969 -8.2031 -0.0781 0 219 35
-3.8281 -8.2031 -0.0781 0 219 35
-4.7656 -7.8906 -0.0781 0 219 35
-4.4531 -7.7344 -0.0781 0 219 35
-3.9844 -8.0469 -0.0781 0 219 35
-3.8281 -8.0469 -0.0781 0 219 35
-4.2969 -7.5781 -0.0781 0 219 35
-3.6719 -8.6719 -0.0781 0 219 35
-3.5156 -8.6719 -0.0781 0 219 35
-3.3594 -8.6719 -0.0781 0 219 35
-2.5781 -8.5156 -0.2344 0 212 42
-3.3594 -8.0469 -0.2344 0 212 42
-3.2031 -8.0469 -0.2344 0 212 42
-3.2031 -8.0469 -0.0781 0 219 35
-3.6719 -7.5781 -0.0781 0 219 35
-3.2031 -7.7344 -0.0781 0 219 35
-3.3594 -7.5781 -0.0781 0 219 35
-3.2031 -7.5781 -0.0781 0 219 35
-2.7344 -8.0469 -0.2344 0 212 42
-2.7344 -7.8906 -0.2344 0 212 42
-2.5781 -7.8906 -0.2344 0 212 42
-2.5781 -7.8906 -0.0781 0 219 35
-2.7344 -7.7344 -0.0781 0 219 35
-2.2656 -9.9219 -1.9531 0 134 120
-1.7969 -9.1406 -1.7969 0 141 113
-1.9531 -8.2031 -1.6406 0 148 106
-1.3281 -8.5156 -1.6406 0 148 106
-1.4844 -8.3594 -1.6406 0 148 106
-1.3281 -8.3594 -1.6406 0 148 106
-2.4219 -7.8906 -1.6406 0 148 106
-2.2656 -7.8906 -1.4844 0 155 99
-2.4219 -7.5781 -1.4844 0 155 99
-2.2656 -7.5781 -1.4844 0 155 99
-1.6406 -7.7344 -1.6406 0 148 106
-1.7969 -7.5781 -1.6406 0 148 106
-1.1719 -8.5156 -1.6406 0 148 106
-0.5469 -8.2031 -1.6406 0 148 106
-1.0156 -7.5781 -1.4844 0 155 99
-0.8594 -7.7344 -1.4844 0 155 99
-0.7031 -7.5781 -1.4844 0 155 99
-0.5469 -7.8906 -1.6406 0 148 106
-1.6406 -8.8281 -0.2344 0 212 42
-1.4844 -8.8281 -0.2344 0 212 42
-1.3281 -8.8281 -0.2344 0 212 42
-1.0156 -9.1406 -0.2344 0 212 42
-0.8594 -9.1406 -0.2344 0 212 42
-0.7031 -9.1406 -0.2344 0 212 42
-1.0156 -8.9844 -0.2344 0 212 42
-0.7031 -8.8281 -0.2344 0 212 42
-0.2344 -8.9844 -0.3906 0 205 49
-0.0781 -8.8281 -0.3906 0 205 49
-0.5469 -8.9844 -0.2344 0 212 42
-0.3906 -8.9844 -0.2344 0 212 42
-0.2344 -8.9844 -0.2344 0 212 42
-0.2344 -8.8281 -0.2344 0 212 42
-2.2656 -8.2031 -0.2344 0 212 42
-2.2656 -8.2031 -0.0781 0 219 35
-1.9531 -8.3594 -0.2344 0 212 42
-2.1094 -8.2031 -0.2344 0 212 42
-1.9531 -8.3594 -0.0781 0 219 35
-2.1094 -8.2031 -0.0781 0 219 35
-1.6406 -8.6719 -0.2344 0 212 42
-1.6406 -8.5156 -0.2344 0 212 42
-1.4844 -8.6719 -0.2344 0 212 42
-1.3281 -8.6719 -0.2344 0 212 42
-2.2656 -8.0469 -0.0781 0 219 35
-2.4219 -7.8906 -0.0781 0 219 35
-2.1094 -8.0469 -0.2344 0 212 42
-1.9531 -8.0469 -0.2344 0 212 42
-1.9531 -8.0469 -0.0781 0 219 35
-2.4219 -7.5781 -0.0781 0 219 35
-1.9531 -7.7344 -0.2344 0 212 42
-1.7969 -7.8906 -0.2344 0 212 42
-1.6406 -7.8906 -0.2344 0 212 42
-1.4844 -7.8906 -0.0781 0 219 35
-1.1719 -8.6719 -0.2344 0 212 42
-1.0156 -8.5156 -0.2344 0 212 42
-0.8594 -8.5156 -0.2344 0 212 42
-0.7031 -8.5156 -0.2344 0 212 42
-0.5469 -8.3594 -0.2344 0 212 42
-0.3906 -8.3594 -0.2344 0 212 42
-0.2344 -8.3594 -0.2344 0 212 42
-0.0781 -7.8906 -0.2344 0 212 42
-4.9219 -7.4219 -1.6406 0 148 106
-4.7656 -7.4219 -1.6406 0 148 106
-3.8281 -7.4219 -1.6406 0 148 106
-3.8281 -7.2656 -1.6406 0 148 106
-4.1406 -6.9531 -1.6406 0 148 106
-3.8281 -7.1094 -1.6406 0 148 106
-4.1406 -6.9531 -1.4844 0 155 99
-4.7656 -6.4844 -1.4844 0 155 99
-4.7656 -6.3281 -1.4844 0 155 99
-4.7656 -6.3281 -1.3281 0 162 92
-4.6094 -6.4844 -1.4844 0 155 99
-4.4531 -6.4844 -1.4844 0 155 99
-4.4531 -6.3281 -1.4844 0 155 99
-4.6094 -6.3281 -1.3281 0 162 92
-4.1406 -6.6406 -1.4844 0 155 99
-3.9844 -6.6406 -1.4844 0 155 99
-3.8281 -6.6406 -1.4844 0 155 99
-3.8281 -6.3281 -1.4844 0 155 99
-3.6719 -7.4219 -1.6406 0 148 106
-3.2031 -7.4219 -1.6406 0 148 106
-3.2031 -7.2656 -1.6406 0 148 106
-3.3594 -7.2656 -1.3281 0 162 92
-3.5156 -6.9531 -1.4844 0 155 99
-2.8906 -7.4219 -1.6406 0 148 106
-3.0469 -7.2656 -1.6406 0 148 106
-3.0469 -6.9531 -1.6406 0 148 106
-3.0469 -7.4219 -1.4844 0 155 99
-3.0469 -7.2656 -1.4844 0 155 99
-3.6719 -6.6406 -1.4844 0 155 99
-3.2031 -6.7969 -1.4844 0 155 99
-2.5781 -6.7969 -1.4844 0 155 99
-2.5781 -6.6406 -1.4844 0 155 99
-2.5781 -6.6406 -1.3281 0 162 92
-2.7344 -6.3281 -1.4844 0 155 99
-2.5781 -6.3281 -1.4844 0 155 99
-4.7656 -6.0156 -1.3281 0 162 92
-4.6094 -6.0156 -1.3281 0 162 92
-4.7656 -5.8594 -1.3281 0 162 92
-4.6094 -5.8594 -1.3281 0 162 92
-4.4531 -5.8594 -1.3281 0 162 92
-3.8281 -6.0156 -1.3281 0 162 92
-4.2969 -5.7031 -1.3281 0 162 92
-4.6094 -5.5469 -1.3281 0 162 92
-4.2969 -7.4219 -0.0781 0 219 35
-3.8281 -7.1094 -0.0781 0 219 35
-3.6719 -7.2656 -0.0781 0 219 35
-3.5156 -7.2656 -0.0781 0 219 35
-3.6719 -7.1094 -0.0781 0 219 35
-2.5781 -7.4219 -0.2344 0 212 42
-2.5781 -7.2656 -0.0781 0 219 35
-2.5781 -6.9531 -0.0781 0 219 35
-3.5156 -6.7969 -0.0781 0 219 35
-3.2031 -6.6406 -0.0781 0 219 35
-3.6719 -6.4844 -0.0781 0 219 35
-3.5156 -6.3281 -0.0781 0 219 35
-3.0469 -6.7969 -0.0781 0 219 35
-3.0469 -6.4844 -0.0781 0 219 35
-2.8906 -6.4844 -0.0781 0 219 35
-2.8906 -6.3281 -0.0781 0 219 35
-2.7344 -6.3281 -0.0781 0 219 35
-2.5781 -6.3281 -0.0781 0 219 35
-3.8281 -6.0156 -0.0781 0 219 35
-3.8281 -5.8594 -0.0781 0 219 35
-3.0469 -6.0156 -0.0781 0 219 35
-2.8906 -6.0156 -0.0781 0 219 35
-2.5781 -6.0156 -0.0781 0 219 35
-2.8906 -5.8594 -0.0781 0 219 35
-2.4219 -7.2656 -1.6406 0 148 106
-2.4219 -7.1094 -1.6406 0 148 106
-2.1094 -7.2656 -1.4844 0 155 99
-1.9531 -7.2656 -1.4844 0 155 99
-2.2656 -6.9531 -1.4844 0 155 99
-1.7969 -7.2656 -1.4844 0 155 99
-2.4219 -6.6406 -1.4844 0 155 99
-2.2656 -7.4219 -0.2344 0 212 42
-2.4219 -7.2656 -0.2344 0 212 42
-2.2656 -7.4219 -0.0781 0 219 35
-2.1094 -7.4219 -0.2344 0 212 42
-2.1094 -7.4219 -0.0781 0 219 35
-1.4844 -7.1094 -0.0781 0 219 35
-2.4219 -6.3281 -0.0781 0 219 35
-1.0156 -7.2656 -0.0781 0 219 35
-0.8594 -7.1094 -0.0781 0 219 35
-5.0781 -4.9219 -2.5781 0 106 148
-5.0781 -4.7656 -2.5781 0 106 148
-5.0781 -3.3594 -2.1094 0 127 127
-5.0781 -3.2031 -1.9531 0 134 120
-5.2344 -3.0469 -1.9531 0 134 120
-5.2344 -2.8906 -1.9531 0 134 120
-5.3906 -2.7344 -1.9531 0 134 120
-5.0781 -2.7344 -1.9531 0 134 120
-5.2344 -2.5781 -1.9531 0 134 120
-5.0781 -2.5781 -1.7969 0 141 113
-5.2344 -2.4219 -1.7969 0 141 113
-5.0781 -2.4219 -1.7969 0 141 113
-5.0781 -2.2656 -1.7969 0 141 113
-5.2344 -2.1094 -1.7969 0 141 113
-5.0781 -2.1094 -1.7969 0 141 113
-5.0781 -1.9531 -1.6406 0 148 106
-5.0781 -1.7969 -1.6406 0 148 106
-5.0781 -1.6406 -1.6406 0 148 106
-5.0781 -1.4844 -1.6406 0 148 106
-5.0781 -1.3281 -1.4844 0 155 99
-5.0781 -1.0156 -1.4844 0 155 99
-5.0781 -0.8594 -1.4844 0 155 99
-5.2344 -0.7031 -1.4844 0 155 99
-5.0781 -0.5469 -1.4844 0 155 99
-5.2344 -0.3906 -1.4844 0 155 99
-5.0781 -0.3906 -1.4844 0 155 99
-5.0781 -0.5469 -1.3281 0 162 92
-5.2344 -0.3906 -1.3281 0 162 92
-5.0781 -0.3906 -1.3281 0 162 92
-5.2344 -0.2344 -1.3281 0 162 92
-5.0781 -0.2344 -1.3281 0 162 92
-5.2344 -0.0781 -1.3281 0 162 92
-5.0781 -0.0781 -1.3281 0 162 92
-4.7656 -4.9219 -2.5781 0 106 148
-4.6094 -4.9219 -2.5781 0 106 148
-4.7656 -4.7656 -2.4219 0 113 141
-4.4531 -4.7656 -2.4219 0 113 141
-4.2969 -4.7656 -2.4219 0 113 141
-3.8281 -4.9219 -2.1094 0 127 127
-3.9844 -4.6094 -2.1094 0 127 127
-4.7656 -4.2969 -2.4219 0 113 141
-4.9219 -4.1406 -2.4219 0 113 141
-4.9219 -4.2969 -2.2656 0 120 134
-4.7656 -4.2969 -2.2656 0 120 134
-4.6094 -4.2969 -2.4219 0 113 141
-4.4531 -4.2969 -2.4219 0 113 141
-4.6094 -4.1406 -2.2656 0 120 134
-4.4531 -4.1406 -2.2656 0 120 134
-4.6094 -4.1406 -2.1094 0 127 127
-4.4531 -4.1406 -2.1094 0 127 127
-4.7656 -3.8281 -2.1094 0 127 127
-4.6094 -3.9844 -2.1094 0 127 127
-4.4531 -3.9844 -2.1094 0 127 127
-4.6094 -3.8281 -2.1094 0 127 127
-4.2969 -4.2969 -2.4219 0 113 141
-4.2969 -4.1406 -2.2656 0 120 134
-3.8281 -4.2969 -1.9531 0 134 120
-4.2969 -3.8281 -2.1094 0 127 127
-4.1406 -3.8281 -2.1094 0 127 127
-3.6719 -4.7656 -2.1094 0 127 127
-3.5156 -4.7656 -2.1094 0 127 127
-3.6719 -4.6094 -1.9531 0 134 120
-4.7656 -3.6719 -2.1094 0 127 127
-4.7656 -3.6719 -1.9531 0 134 120
-4.6094 -3.6719 -2.1094 0 127 127
-4.4531 -3.6719 -2.1094 0 127 127
-4.6094 -3.5156 -2.1094 0 127 127
-4.4531 -3.6719 -1.9531 0 134 120
-4.6094 -3.5156 -1.9531 0 134 120
-4.7656 -3.3594 -2.1094 0 127 127
-4.7656 -3.2031 -2.1094 0 127 127
-4.6094 -3.3594 -2.1094 0 127 127
-4.6094 -3.3594 -1.9531 0 134 120
-4.4531 -3.3594 -1.9531 0 134 120
-4.6094 -3.2031 -1.9531 0 134 120
-4.2969 -3.6719 -2.1094 0 127 127
-4.2969 -3.2031 -1.9531 0 134 120
-4.9219 -3.0469 -1.9531 0 134 120
-4.7656 -3.0469 -1.9531 0 134 120
-4.7656 -2.8906 -1.9531 0 134 120
-4.6094 -3.0469 -1.9531 0 134 120
-4.4531 -3.0469 -1.9531 0 134 120
-4.6094 -2.8906 -1.9531 0 134 120
-4.4531 -2.8906 -1.9531 0 134 120
-4.6094 -2.8906 -1.7969 0 141 113
-4.9219 -2.5781 -1.7969 0 141 113
-4.7656 -2.5781 -1.7969 0 141 113
-4.6094 -2.7344 -1.7969 0 141 113
-4.6094 -2.5781 -1.7969 0 141 113
-4.9219 -2.4219 -1.7969 0 141 113
-4.9219 -2.2656 -1.7969 0 141 113
-4.7656 -2.2656 -1.7969 0 141 113
-4.6094 -2.2656 -1.7969 0 141 113
-4.9219 -1.9531 -1.7969 0 141 113
-4.9219 -2.1094 -1.6406 0 148 106
-4.9219 -1.9531 -1.6406 0 148 106
-4.7656 -1.9531 -1.6406 0 148 106
-4.9219 -1.7969 -1.6406 0 148 106
-4.9219 -1.6406 -1.6406 0 148 106
-4.7656 -1.6406 -1.6406 0 148 106
-4.6094 -1.6406 -1.6406 0 148 106
-4.9219 -1.4844 -1.4844 0 155 99
-4.9219 -1.3281 -1.4844 0 155 99
-4.7656 -1.3281 -1.4844 0 155 99
-4.9219 -1.1719 -1.4844 0 155 99
-4.9219 -1.0156 -1.4844 0 155 99
-4.9219 -0.8594 -1.4844 0 155 99
-4.9219 -0.7031 -1.3281 0 162 92
-0.7031 -0.8594 -0.3906 0 205 49
-0.8594 -0.7031 -0.3906 0 205 49
-0.8594 -0.5469 -0.3906 0 205 49
-0.7031 -0.5469 -0.3906 0 205 49
-0.8594 -0.3906 -0.3906 0 205 49
-0.7031 -0.3906 -0.3906 0 205 49
-1.0156 -0.0781 -0.3906 0 205 49
-0.8594 -0.2344 -0.3906 0 205 49
-0.8594 -0.3906 -0.2344 0 212 42
-0.7031 -0.2344 -0.2344 0 212 42
-0.7031 -0.0781 -0.2344 0 212 42
-7.8906 -9.1406 0.0781 0 226 28
-7.5781 -9.2969 0.0781 0 226 28
-7.7344 -9.1406 0.0781 0 226 28
-7.5781 -9.1406 0.0781 0 226 28
-7.7344 -9.1406 0.2344 0 233 21
-7.5781 -9.1406 0.2344 0 233 21
-7.7344 -8.8281 0.2344 0 233 21
-7.1094 -9.7656 0.0781 0 226 28
-6.9531 -9.7656 0.0781 0 226 28
-7.4219 -9.6094 0.0781 0 226 28
-7.2656 -9.6094 0.0781 0 226 28
-6.6406 -9.9219 0.0781 0 226 28
-6.7969 -9.7656 0.0781 0 226 28
-7.4219 -9.2969 0.0781 0 226 28
-7.2656 -9.2969 0.0781 0 226 28
-7.4219 -9.1406 0.0781 0 226 28
-7.2656 -9.1406 0.0781 0 226 28
-7.4219 -9.1406 0.2344 0 233 21
-7.2656 -9.1406 0.2344 0 233 21
-7.1094 -9.2969 0.2344 0 233 21
-6.9531 -9.2969 0.2344 0 233 21
-7.1094 -9.1406 0.2344 0 233 21
-6.9531 -9.1406 0.2344 0 233 21
-7.4219 -8.9844 0.2344 0 233 21
-7.2656 -8.9844 0.2344 0 233 21
-7.4219 -8.8281 0.2344 0 233 21
-6.7969 -9.1406 0.2344 0 233 21
-6.0156 -8.8281 0.0781 0 226 28
-5.8594 -8.8281 0.0781 0 226 28
-5.7031 -8.8281 0.0781 0 226 28
-6.4844 -8.6719 0.0781 0 226 28
-6.0156 -8.5156 0.0781 0 226 28
-5.7031 -8.6719 0.0781 0 226 28
-5.5469 -8.6719 0.0781 0 226 28
-5.2344 -8.9844 1.7969 49 205 0
-6.3281 -8.6719 2.1094 63 191 0
-5.8594 -8.5156 1.7969 49 205 0
-5.8594 -8.2031 1.7969 49 205 0
-5.3906 -8.0469 1.7969 49 205 0
-5.7031 -8.5156 1.9531 56 198 0
-6.0156 -8.2031 2.1094 63 191 0
-5.7031 -8.3594 1.9531 56 198 0
-5.8594 -8.2031 1.9531 56 198 0
-5.8594 -8.3594 2.1094 63 191 0
-5.7031 -8.3594 2.1094 63 191 0
-6.1719 -8.6719 2.2656 70 184 0
-6.1719 -8.5156 2.2656 70 184 0
-5.5469 -8.3594 1.9531 56 198 0
-5.5469 -8.2031 1.9531 56 198 0
-5.3906 -8.2031 2.1094 63 191 0
-5.2344 -8.2031 1.9531 56 198 0
-6.1719 -8.0469 2.1094 63 191 0
-5.7031 -8.0469 1.9531 56 198 0
-5.8594 -7.7344 1.9531 56 198 0
-5.5469 -8.0469 1.9531 56 198 0
-5.3906 -8.0469 2.1094 63 191 0
-6.0156 -7.2656 1.7969 49 205 0
-6.0156 -7.1094 1.7969 49 205 0
-6.0156 -6.9531 1.7969 49 205 0
-5.8594 -7.1094 1.7969 49 205 0
-5.3906 -7.2656 1.6406 42 212 0
-5.2344 -7.2656 1.7969 49 205 0
-5.3906 -7.1094 1.6406 42 212 0
-5.2344 -7.1094 1.7969 49 205 0
-5.2344 -6.9531 1.7969 49 205 0
-5.0781 -6.9531 1.7969 49 205 0
-6.1719 -6.6406 1.7969 49 205 0
-5.3906 -6.7969 1.6406 42 212 0
-5.2344 -6.7969 1.6406 42 212 0
-5.2344 -6.6406 1.6406 42 212 0
-5.2344 -6.7969 1.7969 49 205 0
-5.0781 -6.7969 1.7969 49 205 0
-5.2344 -6.6406 1.7969 49 205 0
-5.2344 -6.4844 1.6406 42 212 0
-5.2344 -6.4844 1.7969 49 205 0
-5.0781 -6.4844 1.7969 49 205 0
-5.8594 -7.2656 1.9531 56 198 0
-6.0156 -7.1094 1.9531 56 198 0
-6.0156 -6.9531 1.9531 56 198 0
-5.8594 -7.1094 1.9531 56 198 0
-5.8594 -6.9531 1.9531 56 198 0
-5.7031 -6.9531 1.9531 56 198 0
-6.1719 -6.7969 1.9531 56 198 0
-6.0156 -6.7969 1.9531 56 198 0
-6.1719 -6.6406 1.9531 56 198 0
-6.0156 -6.6406 1.9531 56 198 0
-6.0156 -6.6406 2.1094 63 191 0
-5.7031 -6.6406 1.9531 56 198 0
-6.1719 -6.4844 1.9531 56 198 0
-6.0156 -6.4844 1.9531 56 198 0
-6.0156 -6.4844 2.1094 63 191 0
-6.1719 -6.1719 1.9531 56 198 0
-4.4531 -8.0469 0.0781 0 226 28
-4.9219 -7.5781 0.0781 0 226 28
-4.7656 -7.5781 0.0781 0 226 28
-4.4531 -7.7344 0.0781 0 226 28
-4.6094 -7.5781 0.0781 0 226 28
-4.2969 -8.0469 0.0781 0 226 28
-4.4531 -9.7656 1.9531 56 198 0
-3.3594 -9.9219 1.7969 49 205 0
-3.5156 -9.4531 1.6406 42 212 0
-3.3594 -9.6094 1.6406 42 212 0
-3.3594 -9.6094 1.7969 49 205 0
-2.5781 -9.7656 1.4844 35 219 0
-2.5781 -9.6094 1.4844 35 219 0
-2.7344 -9.4531 1.4844 35 219 0
-2.5781 -9.6094 1.6406 42 212 0
-2.5781 -9.4531 1.6406 42 212 0
-3.6719 -9.2969 1.6406 42 212 0
-3.5156 -9.2969 1.6406 42 212 0
-3.6719 -8.9844 1.6406 42 212 0
-3.5156 -8.9844 1.6406 42 212 0
-3.6719 -8.8281 1.6406 42 212 0
-3.5156 -8.8281 1.6406 42 212 0
-3.2031 -8.9844 1.6406 42 212 0
-2.5781 -9.2969 1.4844 35 219 0
-3.0469 -8.8281 1.4844 35 219 0
-2.7344 -8.8281 1.4844 35 219 0
-2.5781 -8.8281 1.4844 35 219 0
-2.5781 -9.2969 1.6406 42 212 0
-2.8906 -8.9844 1.6406 42 212 0
-4.6094 -8.5156 1.6406 42 212 0
-3.9844 -8.2031 1.4844 35 219 0
-3.8281 -8.2031 1.4844 35 219 0
-4.1406 -8.6719 1.6406 42 212 0
-3.8281 -8.5156 1.6406 42 212 0
-4.7656 -7.5781 1.6406 42 212 0
-4.7656 -7.5781 1.7969 49 205 0
-4.6094 -7.7344 1.6406 42 212 0
-4.6094 -7.5781 1.6406 42 212 0
-4.4531 -7.5781 1.6406 42 212 0
-4.6094 -7.5781 1.7969 49 205 0
-4.1406 -8.0469 1.4844 35 219 0
-3.9844 -8.0469 1.4844 35 219 0
-3.9844 -7.7344 1.4844 35 219 0
-4.1406 -8.0469 1.6406 42 212 0
-4.2969 -7.7344 1.6406 42 212 0
-4.2969 -7.5781 1.6406 42 212 0
-3.8281 -7.7344 1.6406 42 212 0
-3.9844 -7.5781 1.6406 42 212 0
-3.8281 -7.5781 1.6406 42 212 0
-3.2031 -8.6719 1.4844 35 219 0
-3.3594 -8.5156 1.4844 35 219 0
-3.3594 -8.2031 1.4844 35 219 0
-3.2031 -8.2031 1.4844 35 219 0
-3.2031 -8.6719 1.6406 42 212 0
-3.6719 -8.2031 1.6406 42 212 0
-3.0469 -8.2031 1.4844 35 219 0
-2.8906 -8.2031 1.6406 42 212 0
-3.6719 -7.8906 1.6406 42 212 0
-3.6719 -7.7344 1.6406 42 212 0
-3.6719 -7.5781 1.6406 42 212 0
-2.7344 -8.0469 1.3281 28 226 0
-2.5781 -8.0469 1.3281 28 226 0
-2.5781 -8.0469 1.4844 35 219 0
-0.2344 -8.3594 1.1719 21 233 0
-0.0781 -8.3594 1.1719 21 233 0
-0.8594 -8.0469 1.1719 21 233 0
-0.7031 -8.0469 1.1719 21 233 0
-0.5469 -8.0469 1.1719 21 233 0
-0.3906 -8.0469 1.1719 21 233 0
-0.2344 -8.0469 1.1719 21 233 0
-0.0781 -8.0469 1.1719 21 233 0
-1.9531 -9.4531 1.4844 35 219 0
-2.4219 -9.9219 1.6406 42 212 0
-2.2656 -9.9219 1.6406 42 212 0
-2.4219 -9.7656 1.6406 42 212 0
-2.2656 -9.7656 1.6406 42 212 0
-2.4219 -9.6094 1.6406 42 212 0
-2.2656 -9.6094 1.6406 42 212 0
-2.4219 -9.4531 1.6406 42 212 0
-1.3281 -9.7656 1.4844 35 219 0
-1.6406 -9.6094 1.4844 35 219 0
-1.7969 -9.4531 1.4844 35 219 0
-1.9531 -9.2969 1.4844 35 219 0
-1.7969 -9.2969 1.4844 35 219 0
-1.3281 -9.1406 1.3281 28 226 0
-1.4844 -9.1406 1.4844 35 219 0
-1.3281 -9.1406 1.4844 35 219 0
-1.6406 -8.9844 1.4844 35 219 0
-1.4844 -8.9844 1.3281 28 226 0
-1.4844 -8.9844 1.4844 35 219 0
-1.3281 -8.9844 1.4844 35 219 0
-1.1719 -9.7656 1.4844 35 219 0
-0.8594 -9.4531 1.3281 28 226 0
-0.7031 -9.4531 1.3281 28 226 0
-0.3906 -9.6094 1.3281 28 226 0
-0.5469 -9.4531 1.3281 28 226 0
-1.1719 -9.2969 1.3281 28 226 0
-1.1719 -9.1406 1.4844 35 219 0
-1.0156 -9.1406 1.4844 35 219 0
-0.8594 -9.2969 1.3281 28 226 0
-0.7031 -8.9844 1.3281 28 226 0
-0.7031 -8.8281 1.3281 28 226 0
-0.5469 -8.8281 1.3281 28 226 0
-0.3906 -8.8281 1.3281 28 226 0
-1.9531 -8.5156 1.3281 28 226 0
-1.9531 -8.3594 1.3281 28 226 0
-1.7969 -8.5156 1.3281 28 226 0
-1.6406 -8.5156 1.3281 28 226 0
-2.4219 -8.0469 1.3281 28 226 0
-2.2656 -8.0469 1.3281 28 226 0
-2.4219 -7.8906 1.3281 28 226 0
-2.4219 -8.0469 1.4844 35 219 0
-2.2656 -8.0469 1.4844 35 219 0
-2.4219 -7.8906 1.4844 35 219 0
-2.2656 -7.8906 1.4844 35 219 0
-2.4219 -7.7344 1.4844 35 219 0
-1.9531 -7.5781 1.3281 28 226 0
-0.8594 -7.8906 1.3281 28 226 0
-0.7031 -7.8906 1.3281 28 226 0
-0.5469 -7.8906 1.3281 28 226 0
-4.4531 -7.4219 0.0781 0 226 28
-4.4531 -7.1094 0.0781 0 226 28
-4.2969 -7.4219 0.0781 0 226 28
-4.2969 -7.2656 0.0781 0 226 28
-4.1406 -7.2656 0.0781 0 226 28
-4.1406 -6.9531 0.0781 0 226 28
-3.3594 -7.2656 0.0781 0 226 28
-3.5156 -7.1094 0.0781 0 226 28
-4.4531 -5.8594 0.0781 0 226 28
-4.2969 -6.0156 0.0781 0 226 28
-4.1406 -6.0156 0.0781 0 226 28
-3.8281 -6.1719 0.0781 0 226 28
-4.2969 -5.8594 0.0781 0 226 28
-4.1406 -5.8594 0.0781 0 226 28
-4.2969 -5.7031 0.0781 0 226 28
-4.1406 -5.7031 0.0781 0 226 28
-3.9844 -5.8594 0.0781 0 226 28
-3.9844 -5.7031 0.2344 0 233 21
-4.4531 -5.3906 0.0781 0 226 28
-4.2969 -5.5469 0.0781 0 226 28
-3.9844 -5.5469 0.2344 0 233 21
-3.6719 -5.8594 0.0781 0 226 28
-3.6719 -5.7031 0.0781 0 226 28
-3.6719 -5.5469 0.0781 0 226 28
-3.6719 -5.3906 0.0781 0 226 28
-4.7656 -7.2656 1.7969 49 205 0
-4.6094 -7.4219 1.7969 49 205 0
-4.4531 -6.9531 1.6406 42 212 0
-3.9844 -6.9531 1.4844 35 219 0
-3.8281 -6.9531 1.4844 35 219 0
-3.9844 -7.2656 1.6406 42 212 0
-3.8281 -7.2656 1.6406 42 212 0
-4.6094 -6.7969 1.4844 35 219 0
-4.4531 -6.7969 1.4844 35 219 0
-4.6094 -6.7969 1.6406 42 212 0
-4.4531 -6.7969 1.6406 42 212 0
-4.1406 -6.6406 1.4844 35 219 0
-3.9844 -6.6406 1.3281 28 226 0
-3.9844 -6.6406 1.4844 35 219 0
-3.8281 -6.6406 1.4844 35 219 0
-3.8281 -6.4844 1.4844 35 219 0
-3.8281 -6.3281 1.6406 42 212 0
-3.3594 -7.2656 1.3281 28 226 0
-3.2031 -7.2656 1.3281 28 226 0
-3.5156 -7.1094 1.3281 28 226 0
-3.2031 -7.1094 1.3281 28 226 0
-3.2031 -6.9531 1.3281 28 226 0
-3.6719 -7.2656 1.6406 42 212 0
-2.7344 -7.4219 1.3281 28 226 0
-3.0469 -7.1094 1.3281 28 226 0
-2.8906 -6.9531 1.4844 35 219 0
-3.2031 -6.7969 1.4844 35 219 0
-3.5156 -6.4844 1.3281 28 226 0
-3.5156 -6.3281 1.3281 28 226 0
-3.3594 -6.7969 1.6406 42 212 0
-3.6719 -6.4844 1.6406 42 212 0
-2.8906 -6.7969 1.4844 35 219 0
-3.0469 -6.6406 1.4844 35 219 0
-3.8281 -6.1719 1.4844 35 219 0
-3.3594 -6.1719 1.4844 35 219 0
-1.6406 -7.4219 1.1719 21 233 0
-1.1719 -7.2656 1.1719 21 233 0
-18.6719 -1.3281 5.7031 226 28 0
-18.9844 -1.1719 5.3906 212 42 0
-18.9844 -1.0156 5.5469 219 35 0
-18.8281 -1.0156 5.5469 219 35 0
-19.1406 -0.7031 5.5469 219 35 0
-18.8281 -0.8594 5.5469 219 35 0
-19.2969 -0.5469 5.5469 219 35 0
-18.8281 -0.7031 5.7031 226 28 0
-18.8281 -0.8594 5.8594 233 21 0
-19.4531 -0.3906 5.7031 226 28 0
-19.4531 -0.0781 5.7031 226 28 0
-19.1406 -0.5469 5.7031 226 28 0
-19.2969 -0.3906 5.7031 226 28 0
-19.1406 -0.5469 5.8594 233 21 0
-19.1406 -0.3906 5.8594 233 21 0
-18.8281 -0.5469 5.7031 226 28 0
-18.9844 -0.5469 5.8594 233 21 0
-18.9844 -0.3906 5.8594 233 21 0
-19.2969 -0.0781 5.7031 226 28 0
-18.9844 -0.2344 5.8594 233 21 0
-18.9844 -0.0781 5.8594 233 21 0
-19.1406 -0.0781 6.0156 240 14 0
-18.5156 -1.1719 5.5469 219 35 0
-18.6719 -1.0156 5.7031 226 28 0
-18.6719 -0.8594 5.7031 226 28 0
-18.5156 -0.8594 5.7031 226 28 0
-18.6719 -0.7031 5.7031 226 28 0
0.3906 -16.0156 -0.3906 0 205 49
0.2344 -13.8281 -0.3906 0 205 49
0.7031 -10.7031 -2.2656 0 120 134
0.3906 -10.5469 -2.2656 0 120 134
0.5469 -10.5469 -2.2656 0 120 134
1.9531 -10.7031 -2.2656 0 120 134
2.2656 -10.7031 -2.2656 0 120 134
2.1094 -10.5469 -2.2656 0 120 134
0.2344 -10.0781 1.4844 35 219 0
0.3906 -10.0781 1.4844 35 219 0
0.0781 -9.9219 -3.8281 0 49 205
0.0781 -9.2969 -3.6719 0 56 198
0.2344 -8.8281 -3.3594 0 70 184
0.3906 -8.3594 -3.3594 0 70 184
0.0781 -7.8906 -3.2031 0 77 177
0.3906 -8.0469 -3.2031 0 77 177
0.2344 -7.5781 -3.2031 0 77 177
0.5469 -7.8906 -3.0469 0 85 170
0.7031 -7.5781 -3.0469 0 85 170
1.3281 -8.6719 -3.5156 0 63 191
1.3281 -8.5156 -3.3594 0 70 184
1.4844 -8.2031 -3.3594 0 70 184
1.4844 -8.0469 -3.2031 0 77 177
1.6406 -7.7344 -3.2031 0 77 177
1.6406 -7.5781 -3.0469 0 85 170
0.2344 -7.4219 -3.0469 0 85 170
0.3906 -7.1094 -2.8906 0 92 162
0.5469 -6.9531 -2.8906 0 92 162
0.7031 -7.4219 -2.8906 0 92 162
0.8594 -7.2656 -2.8906 0 92 162
0.8594 -7.1094 -2.7344 0 99 155
1.0156 -6.9531 -2.7344 0 99 155
0.7031 -6.7969 -2.8906 0 92 162
0.8594 -6.6406 -2.7344 0 99 155
1.0156 -6.6406 -2.7344 0 99 155
1.6406 -7.4219 -3.0469 0 85 170
1.7969 -7.1094 -2.8906 0 92 162
1.9531 -6.9531 -2.8906 0 92 162
2.1094 -6.7969 -2.8906 0 92 162
2.1094 -6.7969 -2.7344 0 99 155
0.5469 -9.6094 -0.3906 0 205 49
0.3906 -9.4531 -0.2344 0 212 42
0.5469 -9.4531 -0.2344 0 212 42
0.0781 -8.8281 -0.3906 0 205 49
0.2344 -8.8281 -0.3906 0 205 49
0.7031 -9.2969 -0.2344 0 212 42
0.8594 -9.1406 -0.2344 0 212 42
1.0156 -9.1406 -0.2344 0 212 42
1.0156 -8.9844 -0.2344 0 212 42
1.1719 -8.9844 -0.2344 0 212 42
1.9531 -9.7656 -0.3906 0 205 49
1.3281 -8.9844 -0.2344 0 212 42
1.4844 -8.8281 -0.2344 0 212 42
1.6406 -8.8281 -0.2344 0 212 42
0.2344 -8.6719 -0.3906 0 205 49
0.3906 -8.6719 -0.3906 0 205 49
0.5469 -8.2031 -0.2344 0 212 42
0.0781 -7.7344 -0.2344 0 212 42
0.7031 -8.0469 -0.2344 0 212 42
0.8594 -7.8906 -0.2344 0 212 42
0.8594 -7.7344 -0.2344 0 212 42
1.0156 -7.5781 -0.2344 0 212 42
1.7969 -8.3594 -0.2344 0 212 42
1.9531 -8.2031 -0.2344 0 212 42
1.9531 -8.0469 -0.2344 0 212 42
2.1094 -7.8906 -0.2344 0 212 42
2.1094 -7.7344 -0.2344 0 212 42
2.1094 -7.5781 -0.2344 0 212 42
1.0156 -7.4219 -0.2344 0 212 42
1.1719 -7.4219 -0.2344 0 212 42
2.2656 -7.4219 -0.2344 0 212 42
2.2656 -7.2656 -0.2344 0 212 42
0.0781 -8.3594 1.1719 21 233 0
0.2344 -8.3594 1.1719 21 233 0
0.3906 -8.3594 1.1719 21 233 0
0.5469 -8.3594 1.1719 21 233 0
1.1719 -8.5156 1.1719 21 233 0
0.7031 -8.3594 1.1719 21 233 0
0.8594 -8.3594 1.1719 21 233 0
1.0156 -8.3594 1.1719 21 233 0
0.0781 -8.0469 1.1719 21 233 0
1.3281 -8.5156 1.1719 21 233 0
1.3281 -8.3594 1.1719 21 233 0
1.4844 -8.3594 1.1719 21 233 0
1.6406 -8.3594 1.1719 21 233 0
1.7969 -8.3594 1.1719 21 233 0
2.2656 -8.5156 1.1719 21 233 0
