ply
format ascii 1.0
comment OctoMap 3D export - Moose Robot
comment Resolution: 0.100 m
element vertex 1470
property float x
property float y
property float z
property uchar red
property uchar green
property uchar blue
end_header
-5.7031 -14.4531 0.5469 47 207 0
-5.3906 -14.4531 0.2344 30 224 0
-5.2344 -14.4531 0.0781 21 233 0
-5.0781 -14.6094 0.2344 30 224 0
-5.2344 -14.4531 0.2344 30 224 0
-5.3906 -14.6094 0.3906 38 216 0
-5.5469 -14.4531 0.3906 38 216 0
-5.3906 -14.4531 0.3906 38 216 0
-5.5469 -14.6094 0.5469 47 207 0
-5.2344 -14.6094 0.3906 38 216 0
-5.0781 -14.6094 0.3906 38 216 0
-5.2344 -14.4531 0.3906 38 216 0
-5.0781 -14.4531 0.3906 38 216 0
-5.8594 -14.1406 0.2344 30 224 0
-5.7031 -14.1406 0.2344 30 224 0
-6.1719 -13.9844 0.2344 30 224 0
-6.0156 -13.9844 0.2344 30 224 0
-6.1719 -13.8281 0.2344 30 224 0
-5.8594 -13.9844 0.2344 30 224 0
-6.0156 -14.2969 0.5469 47 207 0
-6.1719 -14.1406 0.5469 47 207 0
-6.0156 -14.1406 0.5469 47 207 0
-5.8594 -14.2969 0.3906 38 216 0
-5.7031 -14.2969 0.3906 38 216 0
-5.7031 -14.1406 0.3906 38 216 0
-5.8594 -14.2969 0.5469 47 207 0
-5.7031 -14.2969 0.5469 47 207 0
-6.1719 -13.9844 0.3906 38 216 0
-6.0156 -13.9844 0.3906 38 216 0
-6.1719 -13.8281 0.3906 38 216 0
-6.0156 -13.8281 0.3906 38 216 0
-6.1719 -13.9844 0.5469 47 207 0
-5.8594 -13.9844 0.3906 38 216 0
-5.3906 -14.2969 0.0781 21 233 0
-5.5469 -14.2969 0.2344 30 224 0
-5.5469 -14.2969 0.3906 38 216 0
-5.3906 -14.2969 0.3906 38 216 0
-5.2344 -14.1406 0.3906 38 216 0
-5.0781 -14.1406 0.3906 38 216 0
-5.0781 -13.9844 0.3906 38 216 0
-6.6406 -13.5156 0.2344 30 224 0
-6.4844 -13.6719 0.2344 30 224 0
-6.7969 -13.6719 0.5469 47 207 0
-6.0156 -12.5781 0.3906 38 216 0
-5.5469 -12.8906 0.3906 38 216 0
-5.0781 -12.5781 0.3906 38 216 0
-8.8281 -12.4219 0.2344 30 224 0
-8.9844 -11.9531 0.5469 47 207 0
-8.9844 -11.7969 0.2344 30 224 0
-8.5156 -12.2656 0.8594 64 190 0
-8.3594 -12.1094 0.8594 64 190 0
-8.8281 -11.1719 0.2344 30 224 0
-6.4844 -12.2656 0.3906 38 216 0
-5.3906 -11.0156 0.0781 21 233 0
-5.2344 -11.0156 0.0781 21 233 0
-5.5469 -10.8594 0.0781 21 233 0
-9.2969 -14.2969 3.6719 220 34 0
-8.3594 -13.9844 3.3594 203 51 0
-8.6719 -14.1406 3.5156 211 43 0
-7.7344 -14.1406 3.3594 203 51 0
-8.0469 -13.8281 3.3594 203 51 0
-7.7344 -13.8281 3.2031 194 60 0
-7.5781 -13.8281 3.2031 194 60 0
-8.0469 -14.2969 3.5156 211 43 0
-7.5781 -14.1406 3.5156 211 43 0
-8.8281 -13.2031 3.0469 185 69 0
-9.1406 -12.8906 3.0469 185 69 0
-9.6094 -13.2031 3.2031 194 60 0
-9.2969 -13.6719 3.2031 194 60 0
-9.6094 -13.0469 3.2031 194 60 0
-8.5156 -13.2031 3.0469 185 69 0
-7.8906 -13.2031 3.3594 203 51 0
-8.0469 -13.2031 3.6719 220 34 0
-7.7344 -13.2031 3.5156 211 43 0
-7.5781 -13.2031 3.5156 211 43 0
-7.5781 -13.2031 3.6719 220 34 0
-8.5156 -12.5781 3.3594 203 51 0
-8.3594 -12.7344 3.3594 203 51 0
-8.2031 -12.5781 3.3594 203 51 0
-7.8906 -12.8906 3.2031 194 60 0
-7.7344 -13.0469 3.3594 203 51 0
-8.0469 -12.7344 3.2031 194 60 0
-7.8906 -12.7344 3.3594 203 51 0
-7.7344 -13.0469 3.5156 211 43 0
-7.7344 -13.0469 3.6719 220 34 0
-8.0469 -12.5781 3.5156 211 43 0
-7.8906 -12.5781 3.5156 211 43 0
-7.8906 -12.5781 3.6719 220 34 0
-7.7344 -12.7344 3.5156 211 43 0
-7.7344 -12.7344 3.6719 220 34 0
-9.9219 -13.5156 3.9844 237 17 0
-9.9219 -13.6719 4.1406 246 8 0
-9.7656 -13.5156 4.1406 246 8 0
-7.8906 -13.3594 3.8281 229 25 0
-6.3281 -14.4531 3.0469 185 69 0
-6.9531 -14.7656 3.2031 194 60 0
-6.9531 -14.6094 3.2031 194 60 0
-6.7969 -14.9219 3.2031 194 60 0
-6.3281 -14.9219 3.2031 194 60 0
-6.4844 -14.7656 3.2031 194 60 0
-6.3281 -14.7656 3.3594 203 51 0
-7.2656 -14.1406 3.2031 194 60 0
-7.4219 -14.1406 3.3594 203 51 0
-7.1094 -14.2969 3.2031 194 60 0
-6.9531 -14.1406 3.3594 203 51 0
-7.2656 -13.9844 3.3594 203 51 0
-6.9531 -13.9844 3.2031 194 60 0
-6.9531 -13.9844 3.3594 203 51 0
-7.4219 -14.1406 3.5156 211 43 0
-6.9531 -14.1406 3.5156 211 43 0
-7.2656 -13.8281 3.5156 211 43 0
-7.1094 -13.9844 3.5156 211 43 0
-6.9531 -13.9844 3.5156 211 43 0
-7.1094 -13.8281 3.5156 211 43 0
-6.9531 -13.9844 3.6719 220 34 0
-7.1094 -13.8281 3.6719 220 34 0
-6.7969 -14.1406 3.5156 211 43 0
-6.7969 -14.1406 3.6719 220 34 0
-6.0156 -14.7656 3.0469 185 69 0
-5.5469 -14.9219 3.0469 185 69 0
-5.5469 -14.6094 3.0469 185 69 0
-6.1719 -13.8281 3.0469 185 69 0
-6.1719 -14.9219 3.3594 203 51 0
-5.7031 -14.6094 3.3594 203 51 0
-5.3906 -14.9219 3.2031 194 60 0
-5.3906 -14.7656 3.3594 203 51 0
-5.0781 -14.9219 3.2031 194 60 0
-5.2344 -14.7656 3.2031 194 60 0
-5.2344 -14.7656 3.3594 203 51 0
-5.3906 -14.6094 3.2031 194 60 0
-5.3906 -14.4531 3.3594 203 51 0
-5.7031 -14.1406 3.2031 194 60 0
-5.7031 -14.1406 3.3594 203 51 0
-6.0156 -13.8281 3.2031 194 60 0
-6.0156 -13.8281 3.3594 203 51 0
-5.8594 -13.9844 3.2031 194 60 0
-5.8594 -13.9844 3.3594 203 51 0
-5.7031 -13.9844 3.3594 203 51 0
-5.8594 -13.8281 3.3594 203 51 0
-5.3906 -14.2969 3.3594 203 51 0
-5.5469 -14.1406 3.3594 203 51 0
-6.9531 -13.2031 3.0469 185 69 0
-6.3281 -13.6719 3.0469 185 69 0
-6.4844 -13.5156 3.0469 185 69 0
-6.6406 -13.0469 2.8906 177 77 0
-7.2656 -13.2031 3.3594 203 51 0
-7.2656 -13.6719 3.5156 211 43 0
-7.4219 -13.3594 3.5156 211 43 0
-7.2656 -13.3594 3.5156 211 43 0
-7.1094 -13.2031 3.5156 211 43 0
-6.3281 -13.5156 3.2031 194 60 0
-6.4844 -13.5156 3.3594 203 51 0
-6.3281 -13.5156 3.3594 203 51 0
-6.3281 -13.3594 3.3594 203 51 0
-7.4219 -12.8906 3.3594 203 51 0
-7.1094 -13.0469 3.3594 203 51 0
-7.2656 -12.7344 3.2031 194 60 0
-7.2656 -12.8906 3.5156 211 43 0
-7.1094 -12.8906 3.5156 211 43 0
-6.7969 -12.7344 3.3594 203 51 0
-6.1719 -13.6719 3.2031 194 60 0
-6.1719 -13.6719 3.3594 203 51 0
-6.0156 -13.6719 3.3594 203 51 0
-6.1719 -13.5156 3.3594 203 51 0
-5.8594 -12.8906 3.2031 194 60 0
-9.1406 -11.7969 2.8906 177 77 0
-9.2969 -11.6406 3.0469 185 69 0
-8.9844 -11.7969 2.8906 177 77 0
-8.9844 -11.9531 3.3594 203 51 0
-8.8281 -11.9531 3.3594 203 51 0
-9.1406 -11.7969 3.3594 203 51 0
-9.1406 -11.6406 3.3594 203 51 0
-8.8281 -11.7969 3.3594 203 51 0
-8.6719 -12.4219 3.3594 203 51 0
-8.2031 -12.4219 3.3594 203 51 0
-8.3594 -12.2656 3.3594 203 51 0
-8.6719 -12.1094 3.3594 203 51 0
-8.5156 -12.1094 3.3594 203 51 0
-8.6719 -11.9531 3.3594 203 51 0
-8.2031 -12.4219 3.5156 211 43 0
-8.3594 -12.2656 3.5156 211 43 0
-8.2031 -12.2656 3.5156 211 43 0
-8.5156 -11.9531 3.5156 211 43 0
-8.3594 -12.1094 3.5156 211 43 0
-8.3594 -11.9531 3.5156 211 43 0
-8.2031 -12.1094 3.6719 220 34 0
-8.3594 -11.9531 3.6719 220 34 0
-8.0469 -12.4219 3.5156 211 43 0
-8.0469 -12.2656 3.5156 211 43 0
-8.0469 -12.4219 3.6719 220 34 0
-8.0469 -12.2656 3.6719 220 34 0
-4.9219 -14.6094 0.2344 30 224 0
-4.7656 -14.4531 0.3906 38 216 0
-4.9219 -13.8281 0.2344 30 224 0
-4.6094 -13.8281 0.2344 30 224 0
-4.9219 -14.2969 0.3906 38 216 0
-4.7656 -14.1406 0.3906 38 216 0
-4.6094 -14.2969 0.3906 38 216 0
-4.4531 -14.2969 0.3906 38 216 0
-4.4531 -14.1406 0.3906 38 216 0
-4.7656 -13.9844 0.3906 38 216 0
-4.7656 -13.8281 0.3906 38 216 0
-4.6094 -13.8281 0.3906 38 216 0
-4.1406 -14.2969 0.2344 30 224 0
-3.9844 -14.1406 0.2344 30 224 0
-3.9844 -13.9844 0.2344 30 224 0
-4.2969 -13.9844 0.3906 38 216 0
-4.4531 -13.6719 0.2344 30 224 0
-3.3594 -11.6406 0.0781 21 233 0
-3.2031 -11.6406 0.0781 21 233 0
-3.3594 -11.6406 0.2344 30 224 0
-3.2031 -11.6406 0.2344 30 224 0
-3.6719 -11.4844 0.2344 30 224 0
-3.5156 -11.4844 0.2344 30 224 0
-3.3594 -11.4844 0.2344 30 224 0
-2.8906 -11.7969 0.0781 21 233 0
-3.0469 -11.6406 0.0781 21 233 0
-2.8906 -11.6406 0.0781 21 233 0
-2.8906 -11.7969 0.2344 30 224 0
-3.0469 -11.6406 0.2344 30 224 0
-2.8906 -11.6406 0.2344 30 224 0
-2.7344 -11.6406 0.0781 21 233 0
-2.5781 -11.6406 0.0781 21 233 0
-2.7344 -11.7969 0.2344 30 224 0
-2.7344 -11.6406 0.2344 30 224 0
-2.5781 -11.6406 0.2344 30 224 0
-2.7344 -11.6406 0.3906 38 216 0
-2.5781 -11.6406 0.3906 38 216 0
-3.0469 -11.4844 0.3906 38 216 0
-2.8906 -11.4844 0.3906 38 216 0
-2.5781 -10.8594 2.2656 142 112 0
-2.7344 -10.8594 2.4219 151 103 0
-2.4219 -11.7969 0.0781 21 233 0
-2.4219 -11.6406 0.0781 21 233 0
-2.2656 -11.6406 0.0781 21 233 0
-2.4219 -11.6406 0.2344 30 224 0
-2.1094 -11.6406 0.0781 21 233 0
-2.4219 -11.6406 0.3906 38 216 0
-0.8594 -11.3281 0.0781 21 233 0
-2.4219 -10.7031 0.2344 30 224 0
-2.1094 -10.7031 0.0781 21 233 0
-1.9531 -10.7031 0.0781 21 233 0
-1.7969 -10.7031 0.0781 21 233 0
-1.6406 -10.7031 0.0781 21 233 0
-1.7969 -10.7031 0.2344 30 224 0
-1.4844 -10.8594 0.0781 21 233 0
-1.3281 -10.8594 0.0781 21 233 0
-1.4844 -10.7031 0.0781 21 233 0
-1.3281 -10.7031 0.2344 30 224 0
-1.1719 -11.1719 0.0781 21 233 0
-1.1719 -10.7031 0.2344 30 224 0
-1.0156 -10.7031 0.2344 30 224 0
-0.8594 -10.7031 0.0781 21 233 0
-0.8594 -10.7031 0.2344 30 224 0
-0.7031 -10.0781 0.0781 21 233 0
-0.3906 -10.5469 0.0781 21 233 0
-0.3906 -10.3906 0.0781 21 233 0
-1.7969 -12.2656 1.9531 125 129 0
-1.6406 -12.1094 1.9531 125 129 0
-1.4844 -11.4844 2.1094 133 121 0
-1.4844 -11.7969 2.2656 142 112 0
-1.7969 -11.4844 2.2656 142 112 0
-1.3281 -10.2344 1.7969 116 138 0
-1.9531 -10.8594 2.1094 133 121 0
-2.4219 -10.8594 2.2656 142 112 0
-2.2656 -10.8594 2.2656 142 112 0
-2.1094 -10.8594 2.2656 142 112 0
-1.9531 -10.8594 2.2656 142 112 0
-2.1094 -10.7031 2.4219 151 103 0
-2.2656 -10.0781 2.1094 133 121 0
-2.1094 -10.0781 2.1094 133 121 0
-1.9531 -10.5469 2.2656 142 112 0
-2.4219 -10.2344 2.2656 142 112 0
-1.6406 -10.5469 1.9531 125 129 0
-1.7969 -10.5469 2.1094 133 121 0
-1.6406 -10.5469 2.1094 133 121 0
-1.7969 -10.3906 2.1094 133 121 0
-1.6406 -10.0781 1.9531 125 129 0
-1.7969 -10.2344 2.1094 133 121 0
-1.6406 -10.0781 2.1094 133 121 0
-1.4844 -10.2344 1.9531 125 129 0
-1.3281 -10.2344 1.9531 125 129 0
-1.4844 -10.0781 1.9531 125 129 0
-1.3281 -10.0781 1.9531 125 129 0
-1.4844 -10.0781 2.1094 133 121 0
-1.7969 -10.0781 2.2656 142 112 0
-0.0781 -11.1719 1.7969 116 138 0
-0.0781 -10.7031 1.6406 108 146 0
-1.0156 -10.5469 1.6406 108 146 0
-1.0156 -10.2344 1.7969 116 138 0
-0.3906 -10.2344 1.4844 99 155 0
-0.2344 -10.5469 1.6406 108 146 0
-1.1719 -10.7031 2.4219 151 103 0
-1.1719 -10.2344 1.9531 125 129 0
-1.1719 -10.0781 1.9531 125 129 0
-1.1719 -10.0781 2.2656 142 112 0
-2.2656 -10.7031 2.5781 159 95 0
-16.4844 -8.9844 -1.6406 0 181 73
-16.6406 -8.8281 -1.4844 0 190 64
-16.9531 -8.6719 -1.4844 0 190 64
-17.1094 -8.5156 -1.4844 0 190 64
-18.2031 -6.0156 -1.6406 0 181 73
-18.3594 -5.8594 -1.6406 0 181 73
-17.8906 -6.1719 -1.6406 0 181 73
-18.5156 -5.5469 -1.6406 0 181 73
-18.6719 -5.3906 -1.6406 0 181 73
-1.3281 -9.1406 -3.5156 0 77 177
-0.5469 -9.1406 -3.5156 0 77 177
-1.9531 -8.2031 -3.2031 0 95 159
-0.3906 -8.3594 -3.2031 0 95 159
-0.0781 -8.2031 -3.3594 0 86 168
-0.0781 -8.2031 -3.2031 0 95 159
-0.2344 -8.0469 -3.2031 0 95 159
-2.8906 -6.9531 -2.7344 0 121 133
-2.7344 -6.7969 -2.7344 0 121 133
-1.9531 -7.2656 -2.8906 0 112 142
-2.2656 -7.1094 -2.8906 0 112 142
-2.4219 -6.9531 -2.7344 0 121 133
-1.6406 -7.2656 -2.7344 0 121 133
-1.3281 -7.2656 -2.7344 0 121 133
-1.6406 -6.9531 -2.7344 0 121 133
-1.3281 -6.9531 -2.7344 0 121 133
-1.9531 -6.7969 -2.7344 0 121 133
-2.4219 -6.4844 -2.5781 0 129 125
-2.1094 -6.4844 -2.5781 0 129 125
-1.7969 -6.6406 -2.5781 0 129 125
-1.0156 -7.2656 -2.8906 0 112 142
-2.5781 -9.1406 -1.7969 0 172 82
-3.0469 -8.8281 -1.6406 0 181 73
-3.3594 -7.7344 -1.4844 0 190 64
-3.0469 -7.7344 -1.4844 0 190 64
-2.8906 -7.7344 -1.4844 0 190 64
-3.3594 -9.1406 -0.0781 12 242 0
-3.5156 -8.9844 -0.0781 12 242 0
-2.8906 -9.2969 -0.0781 12 242 0
-3.0469 -8.8281 -0.0781 12 242 0
-2.7344 -8.9844 -0.0781 12 242 0
-3.3594 -8.6719 -0.0781 12 242 0
-2.2656 -9.9219 -1.9531 0 164 90
-1.9531 -9.7656 -1.7969 0 172 82
-1.9531 -9.4531 -1.7969 0 172 82
-1.7969 -9.9219 -1.7969 0 172 82
-1.6406 -9.7656 -1.7969 0 172 82
-1.3281 -9.4531 -1.6406 0 181 73
-2.2656 -9.1406 -1.7969 0 172 82
-2.1094 -9.2969 -1.7969 0 172 82
-1.7969 -9.1406 -1.7969 0 172 82
-1.7969 -9.2969 -1.6406 0 181 73
-1.3281 -9.1406 -1.7969 0 172 82
-1.1719 -9.9219 -1.9531 0 164 90
-1.0156 -9.9219 -1.9531 0 164 90
-0.7031 -9.9219 -1.9531 0 164 90
-0.7031 -9.7656 -1.9531 0 164 90
-0.2344 -9.7656 -1.9531 0 164 90
-1.1719 -9.9219 -1.7969 0 172 82
-0.7031 -9.7656 -1.7969 0 172 82
-0.5469 -9.6094 -1.7969 0 172 82
-0.3906 -9.6094 -1.7969 0 172 82
-1.0156 -9.1406 -1.7969 0 172 82
-1.1719 -8.9844 -1.7969 0 172 82
-1.9531 -8.2031 -1.6406 0 181 73
-1.3281 -8.5156 -1.6406 0 181 73
-1.4844 -8.3594 -1.6406 0 181 73
-1.3281 -8.3594 -1.6406 0 181 73
-2.2656 -7.8906 -1.4844 0 190 64
-2.4219 -7.5781 -1.4844 0 190 64
-2.2656 -7.5781 -1.4844 0 190 64
-1.7969 -7.8906 -1.4844 0 190 64
-1.6406 -7.8906 -1.4844 0 190 64
-1.3281 -8.0469 -1.4844 0 190 64
-1.3281 -7.8906 -1.4844 0 190 64
-1.3281 -7.7344 -1.4844 0 190 64
-1.3281 -7.5781 -1.4844 0 190 64
-1.1719 -8.5156 -1.6406 0 181 73
-0.3906 -8.6719 -1.7969 0 172 82
-0.3906 -8.3594 -1.6406 0 181 73
-0.5469 -8.2031 -1.6406 0 181 73
-0.2344 -8.2031 -1.6406 0 181 73
-0.0781 -8.2031 -1.6406 0 181 73
-0.7031 -8.0469 -1.6406 0 181 73
-1.1719 -7.8906 -1.4844 0 190 64
-1.1719 -7.5781 -1.4844 0 190 64
-1.0156 -7.5781 -1.4844 0 190 64
-0.8594 -7.7344 -1.4844 0 190 64
-0.7031 -7.5781 -1.4844 0 190 64
-0.5469 -7.8906 -1.6406 0 181 73
-0.5469 -7.7344 -1.6406 0 181 73
-0.3906 -7.7344 -1.4844 0 190 64
-0.5469 -7.5781 -1.4844 0 190 64
-0.3906 -7.5781 -1.4844 0 190 64
-1.4844 -9.4531 -0.0781 12 242 0
-0.2344 -9.7656 -0.0781 12 242 0
-0.5469 -9.6094 -0.0781 12 242 0
-0.3906 -9.6094 -0.0781 12 242 0
-0.3906 -9.4531 -0.0781 12 242 0
-0.2344 -9.6094 -0.2344 4 250 0
-0.2344 -9.6094 -0.0781 12 242 0
-0.0781 -9.4531 -0.0781 12 242 0
-1.0156 -9.1406 -0.0781 12 242 0
-0.7031 -9.1406 -0.0781 12 242 0
-1.0156 -8.9844 -0.2344 4 250 0
-0.7031 -8.9844 -0.2344 4 250 0
-0.7031 -8.8281 -0.2344 4 250 0
-0.8594 -8.9844 -0.0781 12 242 0
-0.3906 -9.2969 -0.0781 12 242 0
-0.5469 -8.9844 -0.0781 12 242 0
-0.3906 -8.8281 -0.0781 12 242 0
-0.2344 -8.9844 -0.2344 4 250 0
-0.2344 -8.8281 -0.2344 4 250 0
-0.0781 -8.8281 -0.0781 12 242 0
-2.2656 -8.2031 -0.0781 12 242 0
-1.9531 -8.3594 -0.0781 12 242 0
-1.4844 -8.6719 -0.2344 4 250 0
-1.9531 -7.5781 -0.0781 12 242 0
-1.4844 -7.8906 -0.0781 12 242 0
-1.7969 -7.7344 -0.0781 12 242 0
-1.3281 -7.5781 -0.0781 12 242 0
-0.7031 -8.2031 -0.2344 4 250 0
-0.5469 -8.3594 -0.2344 4 250 0
-0.3906 -8.3594 -0.2344 4 250 0
-0.3906 -8.2031 -0.2344 4 250 0
-0.5469 -8.3594 -0.0781 12 242 0
-0.3906 -8.3594 -0.0781 12 242 0
-0.0781 -8.3594 -0.2344 4 250 0
-0.2344 -8.2031 -0.0781 12 242 0
-0.0781 -8.2031 -0.0781 12 242 0
-0.8594 -7.5781 -0.0781 12 242 0
-0.0781 -7.8906 -0.0781 12 242 0
-0.5469 -7.5781 -0.0781 12 242 0
-0.3906 -7.5781 -0.0781 12 242 0
-0.2344 -7.5781 -0.2344 4 250 0
-3.2031 -7.2656 -1.4844 0 190 64
-3.3594 -7.2656 -1.3281 0 198 56
-3.0469 -7.4219 -1.4844 0 190 64
-2.5781 -6.1719 -2.4219 0 138 116
-2.7344 -5.8594 -2.2656 0 146 108
-3.5156 -5.0781 -2.1094 0 155 99
-2.8906 -5.3906 -2.1094 0 155 99
-2.5781 -5.3906 -2.1094 0 155 99
-2.8906 -5.2344 -2.1094 0 155 99
-2.8906 -5.0781 -2.1094 0 155 99
-2.5781 -5.2344 -2.1094 0 155 99
-2.5781 -5.0781 -2.1094 0 155 99
-2.8906 -6.9531 -0.0781 12 242 0
-1.7969 -6.3281 -2.4219 0 138 116
-1.4844 -6.3281 -2.4219 0 138 116
-1.4844 -7.4219 -1.4844 0 190 64
-1.4844 -7.4219 -1.3281 0 198 56
-2.1094 -6.1719 -2.4219 0 138 116
-2.2656 -5.8594 -2.2656 0 146 108
-1.9531 -5.7031 -2.2656 0 146 108
-1.7969 -6.1719 -2.4219 0 138 116
-1.7969 -6.0156 -2.4219 0 138 116
-2.4219 -5.5469 -2.2656 0 146 108
-2.1094 -5.5469 -2.2656 0 146 108
-2.4219 -5.3906 -2.1094 0 155 99
-2.2656 -5.3906 -2.1094 0 155 99
-1.9531 -7.4219 -0.0781 12 242 0
-1.3281 -7.4219 -0.0781 12 242 0
-1.4844 -7.2656 -0.0781 12 242 0
-1.4844 -7.1094 -0.0781 12 242 0
-1.4844 -6.7969 -0.0781 12 242 0
-1.1719 -7.4219 -0.0781 12 242 0
-1.0156 -7.4219 -0.0781 12 242 0
-1.1719 -7.2656 -0.0781 12 242 0
-1.0156 -7.2656 -0.0781 12 242 0
-0.8594 -7.4219 -0.0781 12 242 0
-0.8594 -7.2656 -0.0781 12 242 0
-0.8594 -7.1094 -0.0781 12 242 0
-0.5469 -7.2656 -0.0781 12 242 0
-0.3906 -7.2656 -0.0781 12 242 0
-0.0781 -7.2656 -0.0781 12 242 0
-0.5469 -7.1094 -0.0781 12 242 0
-3.8281 -4.9219 -2.1094 0 155 99
-3.9844 -4.6094 -2.1094 0 155 99
-3.8281 -4.4531 -1.9531 0 164 90
-3.8281 -4.2969 -1.9531 0 164 90
-3.5156 -4.9219 -2.1094 0 155 99
-3.6719 -4.7656 -2.1094 0 155 99
-3.5156 -4.7656 -2.1094 0 155 99
-3.6719 -4.6094 -1.9531 0 164 90
-3.6719 -4.4531 -1.9531 0 164 90
-2.8906 -4.9219 -1.9531 0 164 90
-0.7031 -0.8594 -0.3906 0 250 4
-0.8594 -0.7031 -0.3906 0 250 4
-0.3906 -0.7031 -0.3906 0 250 4
-0.2344 -0.8594 -0.3906 0 250 4
-0.2344 -0.7031 -0.3906 0 250 4
-0.0781 -0.7031 -0.3906 0 250 4
-0.8594 -0.5469 -0.3906 0 250 4
-0.8594 -0.3906 -0.3906 0 250 4
-0.8594 -0.3906 -0.2344 4 250 0
-0.3906 -0.5469 -0.3906 0 250 4
-0.3906 -0.3906 -0.3906 0 250 4
-0.0781 -0.5469 -0.3906 0 250 4
-0.2344 -0.3906 -0.3906 0 250 4
-0.0781 -0.3906 -0.3906 0 250 4
-0.3906 -0.3906 -0.2344 4 250 0
-3.5156 -9.4531 1.6406 108 146 0
-3.2031 -8.9844 1.6406 108 146 0
-2.7344 -8.8281 1.4844 99 155 0
-2.5781 -8.8281 1.4844 99 155 0
-2.8906 -8.9844 1.6406 108 146 0
-2.5781 -9.1406 1.9531 125 129 0
-2.5781 -9.2969 2.1094 133 121 0
-2.8906 -8.8281 2.1094 133 121 0
-2.5781 -8.9844 1.9531 125 129 0
-2.7344 -8.8281 1.9531 125 129 0
-2.5781 -8.8281 1.9531 125 129 0
-2.5781 -8.8281 2.1094 133 121 0
-3.2031 -8.6719 1.6406 108 146 0
-2.5781 -8.6719 1.7969 116 138 0
-2.7344 -8.0469 1.4844 99 155 0
-2.8906 -8.6719 1.9531 125 129 0
-3.0469 -8.6719 2.1094 133 121 0
-3.0469 -8.5156 2.1094 133 121 0
-2.7344 -8.6719 1.9531 125 129 0
-2.5781 -8.6719 1.9531 125 129 0
-2.5781 -8.5156 1.9531 125 129 0
-2.7344 -8.6719 2.1094 133 121 0
-1.1719 -9.7656 0.0781 21 233 0
-0.2344 -9.9219 0.0781 21 233 0
-0.0781 -9.9219 0.0781 21 233 0
-0.8594 -9.2969 0.0781 21 233 0
-0.8594 -9.1406 0.0781 21 233 0
-1.0156 -8.8281 0.0781 21 233 0
-0.3906 -9.1406 0.0781 21 233 0
-0.5469 -8.9844 0.0781 21 233 0
-0.3906 -8.9844 0.0781 21 233 0
-0.5469 -8.8281 0.0781 21 233 0
-1.4844 -7.8906 0.0781 21 233 0
-1.6406 -7.7344 0.0781 21 233 0
-1.3281 -7.7344 0.0781 21 233 0
-1.3281 -7.5781 0.0781 21 233 0
-0.7031 -8.6719 0.0781 21 233 0
-0.2344 -8.5156 0.0781 21 233 0
-0.0781 -8.5156 0.0781 21 233 0
-0.8594 -7.8906 0.0781 21 233 0
-1.1719 -7.7344 0.0781 21 233 0
-1.0156 -7.7344 0.0781 21 233 0
-1.0156 -7.7344 0.2344 30 224 0
-0.8594 -7.5781 0.2344 30 224 0
-0.3906 -7.7344 1.1719 82 172 0
-0.3906 -7.5781 1.1719 82 172 0
-1.4844 -9.9219 1.7969 116 138 0
-2.1094 -9.1406 1.4844 99 155 0
-1.9531 -9.1406 1.4844 99 155 0
-2.2656 -9.1406 1.6406 108 146 0
-2.1094 -9.1406 1.6406 108 146 0
-1.9531 -9.2969 1.7969 116 138 0
-2.1094 -9.1406 1.7969 116 138 0
-2.2656 -8.9844 1.6406 108 146 0
-2.4219 -8.8281 1.6406 108 146 0
-2.2656 -8.9844 1.7969 116 138 0
-2.4219 -8.8281 1.7969 116 138 0
-2.1094 -8.9844 1.7969 116 138 0
-1.4844 -9.1406 1.4844 99 155 0
-1.4844 -8.8281 1.6406 108 146 0
-1.4844 -8.8281 1.7969 116 138 0
-1.9531 -9.9219 1.9531 125 129 0
-1.9531 -9.7656 1.9531 125 129 0
-2.1094 -9.7656 2.1094 133 121 0
-2.2656 -9.4531 1.9531 125 129 0
-2.2656 -9.6094 2.1094 133 121 0
-2.4219 -9.4531 2.1094 133 121 0
-2.1094 -9.4531 1.9531 125 129 0
-2.1094 -9.6094 2.1094 133 121 0
-1.7969 -9.9219 1.9531 125 129 0
-1.7969 -9.9219 2.1094 133 121 0
-1.4844 -9.7656 1.9531 125 129 0
-1.3281 -9.7656 1.9531 125 129 0
-1.4844 -9.9219 2.1094 133 121 0
-1.7969 -9.6094 1.9531 125 129 0
-1.7969 -9.6094 2.1094 133 121 0
-1.6406 -9.9219 2.2656 142 112 0
-1.3281 -9.7656 2.2656 142 112 0
-2.4219 -9.2969 1.9531 125 129 0
-2.2656 -9.2969 1.9531 125 129 0
-2.2656 -9.1406 1.9531 125 129 0
-2.4219 -9.2969 2.1094 133 121 0
-2.1094 -9.2969 1.9531 125 129 0
-1.9531 -9.2969 1.9531 125 129 0
-2.4219 -8.9844 1.9531 125 129 0
-2.2656 -8.9844 1.9531 125 129 0
-2.4219 -8.8281 1.9531 125 129 0
-2.2656 -8.8281 1.9531 125 129 0
-1.9531 -9.2969 2.2656 142 112 0
-1.1719 -9.1406 1.4844 99 155 0
-1.0156 -9.1406 1.4844 99 155 0
-0.7031 -8.9844 1.3281 90 164 0
-0.7031 -8.8281 1.3281 90 164 0
-0.7031 -8.9844 1.4844 99 155 0
-0.7031 -9.1406 1.6406 108 146 0
-0.7031 -8.9844 1.6406 108 146 0
-0.8594 -8.8281 1.6406 108 146 0
-0.7031 -8.8281 1.6406 108 146 0
-0.8594 -8.9844 1.7969 116 138 0
-0.7031 -8.9844 1.7969 116 138 0
-0.8594 -8.8281 1.7969 116 138 0
-0.7031 -8.8281 1.7969 116 138 0
-0.2344 -9.2969 1.4844 99 155 0
-0.5469 -8.8281 1.3281 90 164 0
-0.3906 -8.8281 1.3281 90 164 0
-0.3906 -8.9844 1.4844 99 155 0
-0.0781 -8.9844 1.3281 90 164 0
-0.2344 -8.8281 1.4844 99 155 0
-0.3906 -8.9844 1.6406 108 146 0
-0.5469 -8.8281 1.6406 108 146 0
-0.2344 -8.8281 1.6406 108 146 0
-0.0781 -8.8281 1.6406 108 146 0
-0.7031 -9.9219 2.1094 133 121 0
-0.8594 -9.7656 2.1094 133 121 0
-1.1719 -9.4531 2.1094 133 121 0
-2.4219 -8.6719 1.7969 116 138 0
-1.6406 -8.6719 1.6406 108 146 0
-1.6406 -8.5156 1.6406 108 146 0
-1.6406 -8.6719 1.7969 116 138 0
-1.4844 -8.6719 1.6406 108 146 0
-2.2656 -7.8906 1.3281 90 164 0
-1.9531 -7.5781 1.3281 90 164 0
-1.6406 -8.0469 1.3281 90 164 0
-1.4844 -8.0469 1.3281 90 164 0
-1.7969 -7.5781 1.3281 90 164 0
-1.1719 -8.3594 1.4844 99 155 0
-0.0781 -8.2031 1.3281 90 164 0
-0.3906 -8.6719 1.6406 108 146 0
-0.5469 -8.6719 1.7969 116 138 0
-0.0781 -8.6719 1.6406 108 146 0
-0.2344 -8.5156 1.6406 108 146 0
-0.2344 -8.6719 1.7969 116 138 0
-0.2344 -8.5156 1.7969 116 138 0
-0.0781 -8.5156 1.7969 116 138 0
-0.8594 -8.0469 1.3281 90 164 0
-0.7031 -8.0469 1.3281 90 164 0
-0.5469 -7.8906 1.4844 99 155 0
-0.3906 -7.8906 1.4844 99 155 0
-0.0781 -8.0469 1.3281 90 164 0
-0.2344 -8.0469 1.4844 99 155 0
-0.2344 -7.8906 1.4844 99 155 0
-0.2344 -7.8906 1.6406 108 146 0
-0.0781 -7.7344 1.7969 116 138 0
-1.6406 -7.4219 1.1719 82 172 0
-1.0156 -7.2656 0.0781 21 233 0
-0.8594 -7.4219 0.0781 21 233 0
-0.3906 -7.2656 0.0781 21 233 0
-0.5469 -7.1094 0.2344 30 224 0
-1.1719 -7.2656 1.1719 82 172 0
-0.2344 -7.2656 1.6406 108 146 0
-0.0781 -7.2656 1.6406 108 146 0
0.3906 -16.0156 -0.3906 0 250 4
3.3594 -15.7031 -0.2344 4 250 0
3.5156 -15.5469 -0.2344 4 250 0
0.2344 -12.5781 -4.9219 0 0 255
1.0156 -12.7344 -4.9219 0 0 255
0.3906 -13.9844 -2.7344 0 121 133
1.1719 -13.2031 -2.5781 0 129 125
1.3281 -13.3594 -2.8906 0 112 142
1.3281 -13.3594 -2.7344 0 121 133
1.3281 -13.3594 -2.5781 0 129 125
1.4844 -13.2031 -2.5781 0 129 125
0.5469 -12.4219 -4.9219 0 0 255
0.5469 -12.2656 -4.9219 0 0 255
0.3906 -12.1094 -4.7656 0 8 246
0.5469 -11.9531 -4.7656 0 8 246
0.7031 -12.2656 -4.9219 0 0 255
0.8594 -11.9531 -4.7656 0 8 246
1.0156 -12.1094 -4.7656 0 8 246
0.5469 -11.4844 -4.4531 0 25 229
1.1719 -11.7969 -4.7656 0 8 246
0.7031 -11.6406 -4.6094 0 17 237
1.0156 -11.7969 -4.6094 0 17 237
1.1719 -11.6406 -4.6094 0 17 237
1.6406 -12.4219 -4.9219 0 0 255
1.6406 -12.2656 -4.9219 0 0 255
1.7969 -11.9531 -4.9219 0 0 255
1.4844 -11.7969 -4.7656 0 8 246
1.4844 -11.4844 -4.6094 0 17 237
1.7969 -11.3281 -4.6094 0 17 237
1.9531 -11.6406 -4.7656 0 8 246
0.0781 -11.1719 -4.4531 0 25 229
0.2344 -11.1719 -4.4531 0 25 229
0.7031 -11.1719 -4.4531 0 25 229
1.1719 -11.1719 -4.4531 0 25 229
1.1719 -10.8594 -4.4531 0 25 229
0.0781 -11.1719 -4.2969 0 34 220
0.2344 -11.1719 -4.2969 0 34 220
0.7031 -11.0156 -4.2969 0 34 220
0.0781 -10.0781 -3.9844 0 51 203
0.3906 -10.0781 -3.9844 0 51 203
1.3281 -11.1719 -4.4531 0 25 229
1.6406 -11.1719 -4.6094 0 17 237
1.6406 -11.1719 -4.4531 0 25 229
1.6406 -10.8594 -4.4531 0 25 229
1.9531 -10.8594 -4.4531 0 25 229
2.1094 -10.7031 -4.4531 0 25 229
1.7969 -10.5469 -4.4531 0 25 229
1.4844 -10.7031 -4.2969 0 34 220
1.3281 -10.5469 -4.2969 0 34 220
1.4844 -10.0781 -4.1406 0 43 211
1.9531 -10.3906 -4.2969 0 34 220
2.2656 -10.3906 -4.2969 0 34 220
1.9531 -10.0781 -4.1406 0 43 211
2.4219 -10.2344 -4.2969 0 34 220
0.2344 -13.8281 -0.3906 0 250 4
2.4219 -13.5156 -0.3906 0 250 4
2.2656 -13.3594 -0.3906 0 250 4
2.2656 -13.2031 -0.3906 0 250 4
2.4219 -13.2031 -0.3906 0 250 4
2.1094 -13.2031 -0.2344 4 250 0
2.2656 -13.2031 -0.2344 4 250 0
2.4219 -13.2031 -0.0781 12 242 0
1.7969 -12.8906 -0.2344 4 250 0
1.7969 -12.8906 -0.0781 12 242 0
1.6406 -12.7344 -0.2344 4 250 0
1.7969 -12.7344 -0.0781 12 242 0
1.6406 -12.5781 -0.0781 12 242 0
2.1094 -13.0469 -0.3906 0 250 4
2.2656 -13.0469 -0.3906 0 250 4
2.4219 -12.8906 -0.3906 0 250 4
1.9531 -13.0469 -0.2344 4 250 0
2.1094 -13.0469 -0.2344 4 250 0
2.1094 -13.0469 -0.0781 12 242 0
1.9531 -12.8906 -0.0781 12 242 0
2.4219 -13.0469 -0.2344 4 250 0
2.2656 -12.8906 -0.2344 4 250 0
2.4219 -12.8906 -0.2344 4 250 0
2.2656 -13.0469 -0.0781 12 242 0
2.4219 -13.0469 -0.0781 12 242 0
2.2656 -12.8906 -0.0781 12 242 0
1.9531 -12.7344 -0.2344 4 250 0
2.1094 -12.7344 -0.2344 4 250 0
1.9531 -12.7344 -0.0781 12 242 0
2.1094 -12.7344 -0.0781 12 242 0
2.1094 -12.5781 -0.0781 12 242 0
3.2031 -14.2969 -0.2344 4 250 0
3.3594 -14.1406 -0.2344 4 250 0
3.8281 -13.9844 -0.0781 12 242 0
2.7344 -13.6719 -0.5469 0 242 12
2.7344 -13.2031 -0.3906 0 250 4
3.0469 -13.3594 -0.5469 0 242 12
3.0469 -13.3594 -0.3906 0 250 4
2.8906 -13.2031 -0.3906 0 250 4
2.7344 -13.5156 -0.2344 4 250 0
2.7344 -13.5156 -0.0781 12 242 0
2.8906 -13.6719 -0.2344 4 250 0
2.8906 -13.5156 -0.0781 12 242 0
3.0469 -13.5156 -0.0781 12 242 0
2.5781 -13.2031 -0.2344 4 250 0
2.7344 -13.2031 -0.2344 4 250 0
2.5781 -13.3594 -0.0781 12 242 0
2.5781 -13.2031 -0.0781 12 242 0
3.0469 -13.3594 -0.2344 4 250 0
2.8906 -13.2031 -0.2344 4 250 0
2.8906 -13.3594 -0.0781 12 242 0
2.5781 -13.0469 -0.5469 0 242 12
2.5781 -13.0469 -0.3906 0 250 4
2.7344 -13.0469 -0.3906 0 250 4
2.8906 -13.0469 -0.5469 0 242 12
2.8906 -13.0469 -0.3906 0 250 4
2.5781 -13.0469 -0.2344 4 250 0
2.7344 -13.0469 -0.2344 4 250 0
2.5781 -12.8906 -0.2344 4 250 0
2.5781 -13.0469 -0.0781 12 242 0
2.8906 -13.0469 -0.2344 4 250 0
0.3906 -11.6406 -2.2656 0 146 108
0.2344 -11.4844 -2.4219 0 138 116
0.3906 -11.3281 -2.2656 0 146 108
0.5469 -11.3281 -2.1094 0 155 99
1.0156 -11.4844 -2.2656 0 146 108
0.0781 -11.1719 -2.2656 0 146 108
0.2344 -11.1719 -2.2656 0 146 108
0.0781 -11.1719 -2.1094 0 155 99
0.2344 -11.1719 -2.1094 0 155 99
0.2344 -11.0156 -2.1094 0 155 99
0.3906 -11.0156 -2.1094 0 155 99
0.0781 -10.8594 -1.9531 0 164 90
0.8594 -11.1719 -2.2656 0 146 108
0.0781 -10.0781 -2.1094 0 155 99
0.3906 -10.0781 -1.9531 0 164 90
1.9531 -10.7031 -2.2656 0 146 108
2.2656 -10.7031 -2.2656 0 146 108
2.1094 -10.5469 -2.2656 0 146 108
1.6406 -10.2344 -0.2344 4 250 0
1.7969 -10.2344 -0.2344 4 250 0
1.9531 -10.3906 -0.2344 4 250 0
1.9531 -10.2344 -0.2344 4 250 0
3.9844 -10.0781 -2.4219 0 138 116
3.9844 -10.0781 -2.2656 0 146 108
4.1406 -10.0781 -2.4219 0 138 116
4.1406 -10.0781 -2.2656 0 146 108
3.3594 -12.1094 -0.2344 4 250 0
3.2031 -11.9531 -0.0781 12 242 0
3.6719 -11.6406 -0.0781 12 242 0
6.6406 -10.7031 -0.5469 0 242 12
2.2656 -15.0781 2.5781 159 95 0
2.4219 -15.0781 2.7344 168 86 0
1.7969 -12.5781 0.0781 21 233 0
2.1094 -12.8906 0.0781 21 233 0
1.9531 -12.7344 0.0781 21 233 0
3.3594 -13.2031 0.0781 21 233 0
3.5156 -13.3594 0.0781 21 233 0
3.0469 -13.0469 0.0781 21 233 0
2.8906 -12.8906 0.0781 21 233 0
2.5781 -12.7344 0.0781 21 233 0
2.7344 -12.7344 0.0781 21 233 0
3.8281 -13.6719 0.0781 21 233 0
3.9844 -13.6719 0.0781 21 233 0
2.8906 -13.0469 1.9531 125 129 0
0.5469 -12.2656 1.7969 116 138 0
0.7031 -12.1094 1.7969 116 138 0
0.2344 -11.7969 1.9531 125 129 0
0.0781 -11.7969 2.1094 133 121 0
0.3906 -11.7969 2.1094 133 121 0
0.5469 -11.7969 2.1094 133 121 0
1.1719 -10.7031 1.6406 108 146 0
0.2344 -10.0781 1.4844 99 155 0
0.3906 -10.2344 1.4844 99 155 0
0.3906 -10.0781 1.4844 99 155 0
0.5469 -10.2344 1.7969 116 138 0
0.3906 -10.0781 1.7969 116 138 0
0.8594 -10.3906 1.4844 99 155 0
0.8594 -10.5469 1.6406 108 146 0
0.8594 -10.3906 1.7969 116 138 0
1.1719 -10.5469 1.7969 116 138 0
1.0156 -10.3906 1.7969 116 138 0
0.8594 -10.2344 1.6406 108 146 0
0.7031 -10.2344 1.7969 116 138 0
0.8594 -10.0781 1.7969 116 138 0
0.0781 -11.0156 2.2656 142 112 0
0.0781 -10.8594 2.2656 142 112 0
1.1719 -10.3906 2.1094 133 121 0
1.1719 -10.0781 1.9531 125 129 0
1.0156 -10.0781 2.1094 133 121 0
1.3281 -10.8594 1.6406 108 146 0
1.7969 -10.3906 1.4844 99 155 0
1.4844 -10.0781 1.4844 99 155 0
1.6406 -10.2344 1.4844 99 155 0
1.7969 -10.0781 1.4844 99 155 0
1.4844 -10.5469 1.7969 116 138 0
1.4844 -10.3906 1.7969 116 138 0
1.6406 -10.3906 1.6406 108 146 0
1.7969 -10.3906 1.6406 108 146 0
1.6406 -10.5469 1.7969 116 138 0
1.6406 -10.3906 1.7969 116 138 0
1.7969 -10.0781 1.6406 108 146 0
1.9531 -10.5469 1.4844 99 155 0
2.1094 -10.3906 1.4844 99 155 0
2.2656 -10.5469 1.4844 99 155 0
2.4219 -10.5469 1.4844 99 155 0
1.9531 -10.2344 1.4844 99 155 0
2.1094 -10.2344 1.4844 99 155 0
2.1094 -10.5469 1.6406 108 146 0
2.4219 -10.5469 1.6406 108 146 0
2.2656 -10.3906 1.6406 108 146 0
1.9531 -10.2344 1.6406 108 146 0
2.1094 -10.0781 1.6406 108 146 0
2.2656 -10.0781 1.6406 108 146 0
1.3281 -10.5469 1.9531 125 129 0
1.3281 -10.3906 1.9531 125 129 0
1.6406 -10.5469 2.1094 133 121 0
2.1094 -10.5469 1.9531 125 129 0
1.9531 -10.3906 1.9531 125 129 0
2.2656 -10.5469 1.9531 125 129 0
1.9531 -14.7656 2.5781 159 95 0
2.1094 -14.7656 2.5781 159 95 0
2.1094 -14.9219 2.7344 168 86 0
2.1094 -14.9219 2.8906 177 77 0
2.2656 -14.7656 2.8906 177 77 0
6.1719 -10.2344 1.6406 108 146 0
6.4844 -10.3906 1.7969 116 138 0
6.4844 -10.0781 1.7969 116 138 0
6.7969 -10.2344 1.6406 108 146 0
6.6406 -10.0781 1.7969 116 138 0
7.1094 -10.0781 1.7969 116 138 0
7.2656 -10.0781 1.7969 116 138 0
6.4844 -10.0781 1.9531 125 129 0
7.2656 -10.0781 1.9531 125 129 0
0.0781 -9.9219 -3.8281 0 60 194
0.7031 -9.6094 -3.8281 0 60 194
1.7969 -9.7656 -4.1406 0 43 211
1.3281 -9.9219 -3.9844 0 51 203
1.7969 -9.6094 -3.9844 0 51 203
1.9531 -9.9219 -4.1406 0 43 211
1.9531 -9.4531 -3.8281 0 60 194
2.2656 -9.6094 -3.9844 0 51 203
2.1094 -9.2969 -3.8281 0 60 194
2.4219 -9.2969 -3.8281 0 60 194
2.1094 -8.9844 -3.8281 0 60 194
2.2656 -8.8281 -3.8281 0 60 194
1.9531 -8.8281 -3.6719 0 69 185
2.2656 -8.8281 -3.6719 0 69 185
0.3906 -8.3594 -3.3594 0 86 168
1.1719 -8.5156 -3.5156 0 77 177
1.1719 -8.5156 -3.3594 0 86 168
0.3906 -8.0469 -3.2031 0 95 159
0.5469 -7.8906 -3.0469 0 103 151
0.7031 -7.5781 -3.0469 0 103 151
1.7969 -8.5156 -3.6719 0 69 185
1.6406 -8.6719 -3.5156 0 77 177
1.6406 -8.2031 -3.3594 0 86 168
1.9531 -8.6719 -3.6719 0 69 185
2.1094 -8.3594 -3.5156 0 77 177
2.2656 -8.3594 -3.5156 0 77 177
2.2656 -8.2031 -3.5156 0 77 177
1.3281 -8.0469 -3.3594 0 86 168
1.7969 -8.0469 -3.3594 0 86 168
1.6406 -7.5781 -3.2031 0 95 159
2.2656 -7.8906 -3.5156 0 77 177
2.2656 -7.8906 -3.3594 0 86 168
2.4219 -7.8906 -3.3594 0 86 168
1.9531 -7.7344 -3.3594 0 86 168
2.2656 -7.7344 -3.3594 0 86 168
2.7344 -8.6719 -3.6719 0 69 185
2.5781 -8.2031 -3.5156 0 77 177
2.7344 -8.2031 -3.5156 0 77 177
2.8906 -8.3594 -3.6719 0 69 185
2.8906 -8.0469 -3.5156 0 77 177
3.0469 -8.0469 -3.5156 0 77 177
2.8906 -7.8906 -3.3594 0 86 168
2.7344 -7.7344 -3.3594 0 86 168
3.0469 -7.7344 -3.3594 0 86 168
3.0469 -7.5781 -3.3594 0 86 168
0.8594 -7.2656 -2.8906 0 112 142
1.9531 -7.4219 -3.2031 0 95 159
2.4219 -7.4219 -3.2031 0 95 159
2.2656 -7.4219 -3.0469 0 103 151
1.9531 -6.9531 -2.8906 0 112 142
2.2656 -7.1094 -3.0469 0 103 151
2.4219 -7.1094 -3.0469 0 103 151
1.6406 -6.4844 -2.8906 0 112 142
1.7969 -6.3281 -2.7344 0 121 133
2.1094 -6.6406 -3.0469 0 103 151
2.4219 -6.6406 -2.8906 0 112 142
1.9531 -6.4844 -2.8906 0 112 142
2.4219 -6.4844 -2.8906 0 112 142
2.2656 -6.3281 -2.8906 0 112 142
2.1094 -6.7969 -2.7344 0 121 133
2.1094 -6.1719 -2.7344 0 121 133
2.8906 -7.4219 -3.2031 0 95 159
3.0469 -7.2656 -3.2031 0 95 159
2.5781 -7.1094 -3.2031 0 95 159
2.8906 -6.9531 -3.2031 0 95 159
3.2031 -7.2656 -3.2031 0 95 159
3.0469 -6.9531 -3.0469 0 103 151
2.5781 -6.7969 -2.8906 0 112 142
3.0469 -6.7969 -3.0469 0 103 151
2.8906 -6.6406 -3.0469 0 103 151
3.0469 -6.6406 -3.0469 0 103 151
3.0469 -6.6406 -2.8906 0 112 142
2.7344 -6.3281 -2.8906 0 112 142
3.0469 -6.4844 -2.8906 0 112 142
3.0469 -6.3281 -2.8906 0 112 142
3.3594 -6.7969 -3.0469 0 103 151
3.3594 -6.4844 -3.0469 0 103 151
3.2031 -6.3281 -2.8906 0 112 142
3.3594 -6.3281 -2.8906 0 112 142
3.6719 -6.3281 -3.0469 0 103 151
2.5781 -6.1719 -2.8906 0 112 142
3.0469 -6.1719 -2.8906 0 112 142
2.5781 -6.0156 -2.7344 0 121 133
3.0469 -5.8594 -2.7344 0 121 133
2.8906 -5.7031 -2.7344 0 121 133
3.2031 -6.1719 -2.8906 0 112 142
3.3594 -6.1719 -2.8906 0 112 142
3.2031 -6.0156 -2.8906 0 112 142
3.3594 -6.0156 -2.8906 0 112 142
3.6719 -6.1719 -3.0469 0 103 151
3.5156 -6.0156 -2.8906 0 112 142
3.6719 -6.0156 -2.8906 0 112 142
3.5156 -5.8594 -2.8906 0 112 142
3.6719 -5.8594 -2.8906 0 112 142
3.3594 -6.1719 -2.7344 0 121 133
3.3594 -6.0156 -2.7344 0 121 133
3.5156 -6.0156 -2.7344 0 121 133
3.5156 -5.8594 -2.7344 0 121 133
3.6719 -5.8594 -2.7344 0 121 133
3.5156 -5.7031 -2.7344 0 121 133
3.2031 -5.5469 -2.7344 0 121 133
3.5156 -5.5469 -2.7344 0 121 133
3.6719 -5.5469 -2.7344 0 121 133
3.5156 -5.3906 -2.7344 0 121 133
3.6719 -5.3906 -2.7344 0 121 133
3.5156 -5.3906 -2.5781 0 129 125
3.6719 -5.0781 -2.5781 0 129 125
3.8281 -5.8594 -2.8906 0 112 142
3.8281 -5.7031 -2.8906 0 112 142
3.8281 -5.7031 -2.7344 0 121 133
3.8281 -5.5469 -2.7344 0 121 133
3.9844 -5.5469 -2.7344 0 121 133
3.9844 -5.3906 -2.7344 0 121 133
3.8281 -5.3906 -2.5781 0 129 125
4.1406 -5.5469 -2.7344 0 121 133
4.1406 -5.3906 -2.7344 0 121 133
3.9844 -5.2344 -2.7344 0 121 133
3.8281 -5.0781 -2.7344 0 121 133
3.9844 -5.0781 -2.7344 0 121 133
3.9844 -5.0781 -2.5781 0 129 125
4.1406 -5.2344 -2.7344 0 121 133
4.2969 -5.2344 -2.7344 0 121 133
4.1406 -5.0781 -2.7344 0 121 133
4.2969 -5.0781 -2.7344 0 121 133
4.2969 -5.0781 -2.5781 0 129 125
0.0781 -9.9219 -1.9531 0 164 90
0.3906 -9.9219 -1.9531 0 164 90
0.5469 -9.9219 -1.9531 0 164 90
0.3906 -9.7656 -1.9531 0 164 90
0.5469 -9.7656 -1.9531 0 164 90
0.3906 -9.4531 -1.9531 0 164 90
1.0156 -8.9844 -1.9531 0 164 90
0.3906 -9.7656 -1.7969 0 172 82
0.8594 -9.1406 -1.7969 0 172 82
1.0156 -9.1406 -1.7969 0 172 82
1.1719 -9.1406 -1.7969 0 172 82
0.7031 -8.9844 -1.7969 0 172 82
0.8594 -8.9844 -1.7969 0 172 82
0.8594 -8.8281 -1.7969 0 172 82
1.1719 -8.9844 -1.7969 0 172 82
1.0156 -8.8281 -1.7969 0 172 82
1.3281 -8.9844 -1.7969 0 172 82
0.2344 -8.5156 -1.7969 0 172 82
0.3906 -8.6719 -1.7969 0 172 82
0.5469 -8.6719 -1.7969 0 172 82
0.3906 -8.5156 -1.7969 0 172 82
0.5469 -8.5156 -1.7969 0 172 82
0.5469 -8.3594 -1.7969 0 172 82
0.3906 -8.2031 -1.7969 0 172 82
0.5469 -8.2031 -1.6406 0 181 73
1.1719 -8.5156 -1.7969 0 172 82
0.7031 -8.3594 -1.7969 0 172 82
0.8594 -8.3594 -1.7969 0 172 82
0.7031 -8.3594 -1.6406 0 181 73
0.8594 -8.3594 -1.6406 0 181 73
1.1719 -8.3594 -1.7969 0 172 82
1.1719 -8.2031 -1.7969 0 172 82
1.0156 -8.3594 -1.6406 0 181 73
0.5469 -7.7344 -1.6406 0 181 73
0.5469 -7.5781 -1.6406 0 181 73
0.7031 -7.5781 -1.6406 0 181 73
0.8594 -7.5781 -1.6406 0 181 73
1.0156 -7.7344 -1.6406 0 181 73
1.1719 -7.7344 -1.6406 0 181 73
1.0156 -7.5781 -1.6406 0 181 73
0.8594 -7.5781 -1.4844 0 190 64
1.3281 -8.6719 -1.7969 0 172 82
1.3281 -8.5156 -1.7969 0 172 82
1.3281 -8.3594 -1.6406 0 181 73
0.5469 -9.7656 -0.2344 4 250 0
0.3906 -9.7656 -0.0781 12 242 0
0.5469 -9.7656 -0.0781 12 242 0
0.2344 -9.6094 -0.0781 12 242 0
0.2344 -9.4531 -0.0781 12 242 0
0.3906 -9.4531 -0.2344 4 250 0
0.5469 -9.4531 -0.2344 4 250 0
0.3906 -9.4531 -0.0781 12 242 0
0.7031 -9.7656 -0.2344 4 250 0
0.8594 -9.7656 -0.2344 4 250 0
0.7031 -9.7656 -0.0781 12 242 0
0.8594 -9.7656 -0.0781 12 242 0
0.7031 -9.6094 -0.0781 12 242 0
0.8594 -9.6094 -0.0781 12 242 0
1.0156 -9.6094 -0.0781 12 242 0
1.1719 -9.6094 -0.0781 12 242 0
0.3906 -9.1406 -0.0781 12 242 0
0.0781 -8.9844 -0.2344 4 250 0
0.3906 -8.9844 -0.2344 4 250 0
0.7031 -9.2969 -0.2344 4 250 0
0.8594 -9.1406 -0.2344 4 250 0
1.0156 -9.1406 -0.2344 4 250 0
1.0156 -9.2969 -0.0781 12 242 0
0.7031 -8.9844 -0.2344 4 250 0
1.0156 -8.9844 -0.2344 4 250 0
1.1719 -8.9844 -0.2344 4 250 0
1.1719 -8.9844 -0.0781 12 242 0
1.9531 -9.7656 -0.3906 0 250 4
1.6406 -8.8281 -0.3906 0 250 4
1.3281 -8.9844 -0.2344 4 250 0
1.4844 -8.8281 -0.2344 4 250 0
1.6406 -8.8281 -0.2344 4 250 0
1.7969 -8.8281 -0.2344 4 250 0
2.1094 -9.2969 -0.3906 0 250 4
2.2656 -9.1406 -0.3906 0 250 4
2.4219 -9.1406 -0.3906 0 250 4
2.2656 -8.9844 -0.3906 0 250 4
2.4219 -8.9844 -0.3906 0 250 4
2.4219 -9.1406 -0.2344 4 250 0
2.1094 -8.9844 -0.2344 4 250 0
2.2656 -8.9844 -0.2344 4 250 0
2.4219 -8.9844 -0.2344 4 250 0
2.2656 -8.8281 -0.2344 4 250 0
0.2344 -8.2031 -0.0781 12 242 0
1.0156 -8.6719 -0.2344 4 250 0
1.1719 -8.6719 -0.2344 4 250 0
1.0156 -8.5156 -0.2344 4 250 0
1.0156 -8.6719 -0.0781 12 242 0
1.0156 -8.5156 -0.0781 12 242 0
1.1719 -8.5156 -0.0781 12 242 0
0.8594 -8.2031 -0.2344 4 250 0
1.0156 -8.2031 -0.2344 4 250 0
1.1719 -8.2031 -0.2344 4 250 0
1.0156 -8.3594 -0.0781 12 242 0
1.1719 -8.3594 -0.0781 12 242 0
1.1719 -8.2031 -0.0781 12 242 0
0.0781 -8.0469 -0.2344 4 250 0
0.2344 -7.8906 -0.2344 4 250 0
0.0781 -7.7344 -0.2344 4 250 0
0.2344 -7.7344 -0.0781 12 242 0
0.3906 -7.5781 -0.2344 4 250 0
1.7969 -8.6719 -0.3906 0 250 4
1.7969 -8.5156 -0.3906 0 250 4
1.3281 -8.6719 -0.2344 4 250 0
1.4844 -8.6719 -0.2344 4 250 0
1.3281 -8.6719 -0.0781 12 242 0
1.4844 -8.5156 -0.0781 12 242 0
1.6406 -8.6719 -0.2344 4 250 0
1.7969 -8.6719 -0.2344 4 250 0
1.7969 -8.5156 -0.0781 12 242 0
1.4844 -8.2031 -0.2344 4 250 0
1.3281 -8.3594 -0.0781 12 242 0
1.4844 -8.3594 -0.0781 12 242 0
1.6406 -8.2031 -0.2344 4 250 0
1.6406 -8.3594 -0.0781 12 242 0
1.9531 -8.2031 -0.2344 4 250 0
1.3281 -8.0469 -0.2344 4 250 0
1.9531 -8.0469 -0.2344 4 250 0
3.9844 -9.9219 -2.2656 0 146 108
4.2969 -9.9219 -2.4219 0 138 116
4.1406 -9.9219 -2.2656 0 146 108
4.2969 -9.9219 -2.2656 0 146 108
4.1406 -9.7656 -2.2656 0 146 108
4.2969 -9.7656 -2.2656 0 146 108
4.4531 -9.9219 -2.4219 0 138 116
4.6094 -9.9219 -2.4219 0 138 116
4.4531 -9.7656 -2.4219 0 138 116
4.6094 -9.7656 -2.4219 0 138 116
4.4531 -9.7656 -2.2656 0 146 108
4.6094 -9.7656 -2.2656 0 146 108
4.7656 -9.7656 -2.2656 0 146 108
4.9219 -9.7656 -2.2656 0 146 108
4.6094 -9.6094 -2.4219 0 138 116
4.6094 -9.6094 -2.2656 0 146 108
4.7656 -9.6094 -2.4219 0 138 116
4.6094 -8.9844 -2.2656 0 146 108
4.9219 -8.9844 -2.2656 0 146 108
4.7656 -8.8281 -2.2656 0 146 108
4.9219 -8.8281 -2.2656 0 146 108
4.4531 -9.2969 -2.1094 0 155 99
4.6094 -9.2969 -2.1094 0 155 99
4.7656 -9.1406 -2.1094 0 155 99
4.9219 -9.1406 -2.1094 0 155 99
3.0469 -9.4531 -0.2344 4 250 0
3.0469 -9.4531 -0.0781 12 242 0
2.5781 -9.1406 -0.3906 0 250 4
2.5781 -8.9844 -0.3906 0 250 4
2.7344 -8.9844 -0.3906 0 250 4
2.5781 -8.8281 -0.3906 0 250 4
2.7344 -8.8281 -0.3906 0 250 4
2.8906 -8.8281 -0.3906 0 250 4
3.0469 -9.2969 -0.2344 4 250 0
2.5781 -8.9844 -0.2344 4 250 0
2.5781 -8.8281 -0.2344 4 250 0
2.7344 -8.8281 -0.2344 4 250 0
2.5781 -8.8281 -0.0781 12 242 0
3.6719 -8.9844 -0.3906 0 250 4
3.2031 -9.1406 -0.2344 4 250 0
3.3594 -9.1406 -0.2344 4 250 0
3.2031 -9.1406 -0.0781 12 242 0
3.5156 -9.1406 -0.0781 12 242 0
3.3594 -8.9844 -0.0781 12 242 0
3.5156 -8.9844 -0.0781 12 242 0
3.6719 -8.8281 -0.0781 12 242 0
3.8281 -8.9844 -0.3906 0 250 4
3.9844 -8.9844 -0.3906 0 250 4
4.1406 -8.9844 -0.5469 0 242 12
4.1406 -8.8281 -0.3906 0 250 4
3.8281 -8.8281 -0.2344 4 250 0
4.1406 -8.8281 -0.2344 4 250 0
4.2969 -8.8281 -0.2344 4 250 0
2.7344 -8.6719 -0.3906 0 250 4
2.8906 -8.6719 -0.3906 0 250 4
3.0469 -8.6719 -0.3906 0 250 4
2.8906 -8.5156 -0.3906 0 250 4
3.0469 -8.5156 -0.3906 0 250 4
2.7344 -8.6719 -0.2344 4 250 0
2.7344 -8.5156 -0.2344 4 250 0
2.5781 -8.6719 -0.0781 12 242 0
2.7344 -8.6719 -0.0781 12 242 0
2.8906 -8.6719 -0.2344 4 250 0
2.8906 -8.5156 -0.2344 4 250 0
3.0469 -8.5156 -0.2344 4 250 0
2.8906 -8.3594 -0.2344 4 250 0
3.0469 -8.3594 -0.2344 4 250 0
3.0469 -8.2031 -0.2344 4 250 0
3.2031 -8.5156 -0.3906 0 250 4
3.2031 -8.3594 -0.3906 0 250 4
3.3594 -8.3594 -0.3906 0 250 4
3.3594 -8.2031 -0.3906 0 250 4
3.5156 -8.2031 -0.3906 0 250 4
3.2031 -8.3594 -0.2344 4 250 0
3.2031 -8.2031 -0.2344 4 250 0
3.3594 -8.2031 -0.2344 4 250 0
3.0469 -8.0469 -0.0781 12 242 0
3.5156 -8.0469 -0.3906 0 250 4
3.6719 -8.0469 -0.3906 0 250 4
3.3594 -7.7344 -0.3906 0 250 4
3.3594 -7.5781 -0.3906 0 250 4
3.6719 -7.7344 -0.3906 0 250 4
3.2031 -8.0469 -0.2344 4 250 0
3.3594 -8.0469 -0.2344 4 250 0
3.2031 -8.0469 -0.0781 12 242 0
3.5156 -8.0469 -0.2344 4 250 0
3.6719 -8.0469 -0.2344 4 250 0
3.5156 -7.8906 -0.2344 4 250 0
3.2031 -7.7344 -0.0781 12 242 0
3.3594 -7.5781 -0.0781 12 242 0
3.6719 -7.7344 -0.2344 4 250 0
3.8281 -8.6719 -0.2344 4 250 0
3.9844 -8.6719 -0.2344 4 250 0
3.8281 -8.6719 -0.0781 12 242 0
3.8281 -8.5156 -0.0781 12 242 0
3.9844 -8.5156 -0.0781 12 242 0
3.9844 -8.3594 -0.0781 12 242 0
4.1406 -8.2031 -0.0781 12 242 0
4.2969 -8.2031 -0.0781 12 242 0
3.8281 -7.7344 -0.3906 0 250 4
3.8281 -7.5781 -0.3906 0 250 4
3.8281 -7.8906 -0.2344 4 250 0
3.8281 -7.7344 -0.2344 4 250 0
3.9844 -7.7344 -0.2344 4 250 0
3.8281 -7.5781 -0.2344 4 250 0
3.9844 -7.5781 -0.2344 4 250 0
3.8281 -7.5781 -0.0781 12 242 0
4.4531 -7.8906 -0.3906 0 250 4
4.6094 -7.8906 -0.3906 0 250 4
4.9219 -7.5781 -0.3906 0 250 4
4.4531 -8.0469 -0.0781 12 242 0
4.4531 -7.8906 -0.0781 12 242 0
4.9219 -7.7344 -0.2344 4 250 0
0.7031 -7.4219 -1.6406 0 181 73
0.0781 -6.6406 -1.3281 0 198 56
0.2344 -6.6406 -1.3281 0 198 56
0.2344 -6.3281 -1.3281 0 198 56
0.3906 -6.4844 -1.3281 0 198 56
0.3906 -6.3281 -1.3281 0 198 56
0.2344 -7.2656 -0.0781 12 242 0
0.3906 -7.4219 -0.2344 4 250 0
0.5469 -7.4219 -0.2344 4 250 0
0.5469 -7.4219 -0.0781 12 242 0
0.3906 -7.2656 -0.0781 12 242 0
0.2344 -7.1094 -0.2344 4 250 0
0.0781 -6.9531 -0.2344 4 250 0
0.0781 -7.1094 -0.0781 12 242 0
0.2344 -7.1094 -0.0781 12 242 0
0.2344 -6.9531 -0.0781 12 242 0
0.5469 -7.1094 -0.2344 4 250 0
0.5469 -6.9531 -0.2344 4 250 0
0.0781 -6.7969 -0.0781 12 242 0
3.5156 -7.4219 -0.3906 0 250 4
3.6719 -7.4219 -0.3906 0 250 4
3.5156 -7.2656 -0.3906 0 250 4
3.5156 -7.1094 -0.3906 0 250 4
3.6719 -6.7969 -0.3906 0 250 4
3.8281 -7.4219 -0.3906 0 250 4
3.8281 -7.2656 -0.3906 0 250 4
3.8281 -7.1094 -0.3906 0 250 4
3.8281 -6.9531 -0.3906 0 250 4
3.9844 -6.9531 -0.3906 0 250 4
3.9844 -7.4219 -0.2344 4 250 0
3.8281 -7.2656 -0.2344 4 250 0
4.1406 -7.4219 -0.2344 4 250 0
4.1406 -7.2656 -0.2344 4 250 0
4.1406 -7.4219 -0.0781 12 242 0
4.1406 -7.2656 -0.0781 12 242 0
3.8281 -7.1094 -0.2344 4 250 0
3.9844 -7.1094 -0.2344 4 250 0
3.9844 -7.1094 -0.0781 12 242 0
4.2969 -7.1094 -0.0781 12 242 0
4.2969 -6.9531 -0.0781 12 242 0
3.9844 -6.7969 -0.3906 0 250 4
3.9844 -6.6406 -0.3906 0 250 4
3.9844 -6.4844 -0.3906 0 250 4
4.1406 -6.3281 -0.3906 0 250 4
3.9844 -6.7969 -0.2344 4 250 0
4.1406 -6.6406 -0.2344 4 250 0
4.2969 -6.7969 -0.0781 12 242 0
4.1406 -6.4844 -0.2344 4 250 0
4.2969 -6.4844 -0.2344 4 250 0
4.2969 -6.3281 -0.2344 4 250 0
4.4531 -6.7969 -0.0781 12 242 0
4.6094 -6.6406 -0.0781 12 242 0
4.4531 -6.4844 -0.0781 12 242 0
4.4531 -6.3281 -0.0781 12 242 0
4.6094 -6.3281 -0.0781 12 242 0
4.4531 -6.1719 -0.0781 12 242 0
4.6094 -5.7031 -0.0781 12 242 0
5.0781 -8.8281 -2.2656 0 146 108
5.2344 -9.7656 -0.3906 0 250 4
5.5469 -9.9219 -0.5469 0 242 12
5.3906 -9.7656 -0.5469 0 242 12
5.5469 -9.7656 -0.5469 0 242 12
5.0781 -9.6094 -0.3906 0 250 4
5.5469 -9.4531 -0.5469 0 242 12
5.3906 -9.6094 -0.3906 0 250 4
5.5469 -9.6094 -0.3906 0 250 4
5.5469 -9.4531 -0.3906 0 250 4
5.7031 -9.7656 -0.3906 0 250 4
5.7031 -9.6094 -0.5469 0 242 12
5.8594 -9.6094 -0.5469 0 242 12
5.8594 -9.4531 -0.5469 0 242 12
5.7031 -9.6094 -0.3906 0 250 4
5.8594 -9.6094 -0.3906 0 250 4
5.7031 -9.4531 -0.3906 0 250 4
5.8594 -9.4531 -0.3906 0 250 4
6.0156 -9.4531 -0.5469 0 242 12
6.1719 -9.4531 -0.5469 0 242 12
6.1719 -9.6094 -0.3906 0 250 4
6.1719 -9.4531 -0.3906 0 250 4
5.0781 -9.2969 -0.3906 0 250 4
5.3906 -9.2969 -0.5469 0 242 12
5.8594 -9.2969 -0.5469 0 242 12
5.8594 -9.2969 -0.3906 0 250 4
6.1719 -9.2969 -0.5469 0 242 12
6.0156 -9.1406 -0.5469 0 242 12
6.0156 -9.2969 -0.3906 0 250 4
6.1719 -9.2969 -0.3906 0 250 4
6.0156 -9.1406 -0.3906 0 250 4
6.0156 -8.9844 -0.5469 0 242 12
6.1719 -8.8281 -0.5469 0 242 12
6.0156 -8.8281 -0.2344 4 250 0
6.3281 -9.4531 -0.5469 0 242 12
6.3281 -9.4531 -0.3906 0 250 4
6.3281 -9.2969 -0.5469 0 242 12
6.4844 -9.2969 -0.5469 0 242 12
6.3281 -9.1406 -0.5469 0 242 12
6.3281 -9.2969 -0.3906 0 250 4
6.3281 -9.1406 -0.3906 0 250 4
6.3281 -8.9844 -0.5469 0 242 12
6.4844 -8.9844 -0.5469 0 242 12
6.4844 -8.8281 -0.5469 0 242 12
6.3281 -8.9844 -0.3906 0 250 4
6.4844 -8.9844 -0.3906 0 250 4
6.3281 -8.8281 -0.3906 0 250 4
6.4844 -8.8281 -0.3906 0 250 4
6.1719 -8.6719 -0.5469 0 242 12
6.1719 -8.6719 -0.2344 4 250 0
5.0781 -7.7344 -0.3906 0 250 4
5.2344 -7.7344 -0.3906 0 250 4
5.0781 -7.5781 -0.3906 0 250 4
5.3906 -7.7344 -0.3906 0 250 4
5.0781 -7.7344 -0.2344 4 250 0
5.2344 -7.7344 -0.2344 4 250 0
5.3906 -7.7344 -0.2344 4 250 0
6.1719 -7.7344 -0.0781 12 242 0
6.4844 -8.6719 -0.5469 0 242 12
6.3281 -8.5156 -0.5469 0 242 12
6.4844 -8.5156 -0.5469 0 242 12
6.4844 -8.6719 -0.3906 0 250 4
6.3281 -8.5156 -0.3906 0 250 4
6.4844 -8.5156 -0.3906 0 250 4
6.6406 -8.6719 -0.5469 0 242 12
6.6406 -8.5156 -0.5469 0 242 12
6.7969 -8.5156 -0.5469 0 242 12
6.6406 -8.6719 -0.3906 0 250 4
6.6406 -8.5156 -0.3906 0 250 4
6.7969 -8.5156 -0.3906 0 250 4
6.3281 -8.3594 -0.5469 0 242 12
6.6406 -8.3594 -0.5469 0 242 12
6.7969 -8.3594 -0.5469 0 242 12
6.7969 -8.2031 -0.5469 0 242 12
6.6406 -8.3594 -0.3906 0 250 4
6.7969 -8.3594 -0.3906 0 250 4
6.7969 -8.2031 -0.3906 0 250 4
6.3281 -8.3594 -0.2344 4 250 0
6.4844 -8.3594 -0.2344 4 250 0
6.4844 -8.2031 -0.2344 4 250 0
6.9531 -8.2031 -0.3906 0 250 4
6.7969 -8.0469 -0.5469 0 242 12
6.6406 -8.0469 -0.3906 0 250 4
6.7969 -8.0469 -0.3906 0 250 4
6.3281 -8.0469 -0.2344 4 250 0
6.4844 -8.0469 -0.2344 4 250 0
6.3281 -7.8906 -0.2344 4 250 0
6.6406 -8.0469 -0.2344 4 250 0
6.6406 -7.8906 -0.2344 4 250 0
6.3281 -7.5781 -0.0781 12 242 0
6.6406 -7.7344 -0.2344 4 250 0
6.7969 -7.7344 -0.2344 4 250 0
6.6406 -7.5781 -0.2344 4 250 0
6.7969 -7.5781 -0.2344 4 250 0
6.9531 -8.0469 -0.3906 0 250 4
6.9531 -7.5781 -0.2344 4 250 0
5.7031 -7.2656 -0.2344 4 250 0
5.7031 -6.4844 -0.0781 12 242 0
6.3281 -7.2656 -0.0781 12 242 0
6.7969 -7.4219 -0.2344 4 250 0
6.3281 -7.1094 -0.0781 12 242 0
6.4844 -6.9531 -0.0781 12 242 0
6.6406 -7.1094 -0.2344 4 250 0
6.7969 -6.9531 -0.2344 4 250 0
6.9531 -7.4219 -0.2344 4 250 0
6.9531 -7.2656 -0.2344 4 250 0
7.1094 -7.2656 -0.2344 4 250 0
7.1094 -7.1094 -0.2344 4 250 0
7.1094 -6.9531 -0.2344 4 250 0
6.4844 -6.6406 -0.0781 12 242 0
6.6406 -6.7969 -0.0781 12 242 0
6.6406 -6.6406 -0.0781 12 242 0
6.4844 -6.3281 -0.0781 12 242 0
6.6406 -6.4844 -0.0781 12 242 0
6.6406 -6.3281 -0.0781 12 242 0
6.9531 -6.7969 -0.2344 4 250 0
7.2656 -6.7969 -0.2344 4 250 0
3.5156 -4.9219 -2.5781 0 129 125
3.6719 -4.9219 -2.5781 0 129 125
3.6719 -4.6094 -2.5781 0 129 125
3.9844 -4.9219 -2.5781 0 129 125
3.9844 -4.7656 -2.5781 0 129 125
4.2969 -4.9219 -2.7344 0 121 133
4.2969 -4.9219 -2.5781 0 129 125
4.1406 -4.7656 -2.5781 0 129 125
4.2969 -4.7656 -2.5781 0 129 125
3.8281 -4.6094 -2.5781 0 129 125
3.9844 -4.6094 -2.5781 0 129 125
4.1406 -4.6094 -2.5781 0 129 125
4.2969 -4.6094 -2.5781 0 129 125
4.1406 -4.4531 -2.5781 0 129 125
4.2969 -4.4531 -2.5781 0 129 125
4.6094 -4.9219 -2.7344 0 121 133
4.4531 -4.7656 -2.5781 0 129 125
4.6094 -4.7656 -2.5781 0 129 125
4.4531 -4.6094 -2.5781 0 129 125
4.6094 -4.6094 -2.5781 0 129 125
4.4531 -4.4531 -2.5781 0 129 125
4.6094 -4.4531 -2.5781 0 129 125
4.7656 -4.6094 -2.5781 0 129 125
4.7656 -4.4531 -2.5781 0 129 125
4.2969 -4.1406 -2.5781 0 129 125
4.6094 -4.2969 -2.5781 0 129 125
4.7656 -4.2969 -2.5781 0 129 125
4.7656 -4.1406 -2.5781 0 129 125
4.9219 -4.1406 -2.5781 0 129 125
4.7656 -3.9844 -2.5781 0 129 125
4.2969 -4.4531 -2.4219 0 138 116
3.9844 -4.2969 -2.4219 0 138 116
3.8281 -4.1406 -2.4219 0 138 116
3.9844 -4.1406 -2.4219 0 138 116
4.1406 -4.1406 -2.4219 0 138 116
4.2969 -4.1406 -2.4219 0 138 116
3.8281 -3.9844 -2.4219 0 138 116
4.1406 -3.9844 -2.4219 0 138 116
4.2969 -3.9844 -2.4219 0 138 116
4.1406 -3.8281 -2.4219 0 138 116
4.2969 -3.8281 -2.4219 0 138 116
4.4531 -4.1406 -2.4219 0 138 116
4.6094 -4.1406 -2.4219 0 138 116
4.7656 -4.1406 -2.4219 0 138 116
4.4531 -3.9844 -2.4219 0 138 116
4.6094 -3.9844 -2.4219 0 138 116
4.4531 -3.8281 -2.4219 0 138 116
4.6094 -3.8281 -2.4219 0 138 116
4.7656 -3.9844 -2.4219 0 138 116
4.9219 -3.9844 -2.4219 0 138 116
4.7656 -3.8281 -2.4219 0 138 116
4.9219 -3.8281 -2.4219 0 138 116
4.1406 -3.6719 -2.4219 0 138 116
4.2969 -3.6719 -2.4219 0 138 116
4.4531 -3.6719 -2.4219 0 138 116
4.6094 -3.6719 -2.4219 0 138 116
4.4531 -3.5156 -2.4219 0 138 116
4.6094 -3.5156 -2.4219 0 138 116
4.7656 -3.6719 -2.4219 0 138 116
