ply
format ascii 1.0
comment OctoMap 3D export - Moose Robot
comment Resolution: 0.100 m
element vertex 1490
property float x
property float y
property float z
property uchar red
property uchar green
property uchar blue
end_header
-15.0781 0.3906 3.3594 3 251 0
-15.0781 0.0781 3.5156 10 244 0
-15.0781 0.0781 3.6719 17 237 0
-15.3906 0.3906 3.5156 10 244 0
-15.3906 0.3906 3.6719 17 237 0
-15.5469 0.5469 3.6719 17 237 0
-15.2344 0.3906 3.6719 17 237 0
-16.0156 0.7031 3.3594 3 251 0
-16.0156 1.0156 3.2031 0 251 3
-15.7031 0.8594 3.6719 17 237 0
-15.2344 1.1719 3.2031 0 251 3
-15.3906 0.7031 3.6719 17 237 0
-15.3906 0.8594 3.6719 17 237 0
-15.2344 0.7031 3.5156 10 244 0
-15.2344 0.8594 3.5156 10 244 0
-15.0781 1.0156 3.5156 10 244 0
-15.2344 1.0156 3.6719 17 237 0
-15.0781 1.0156 3.6719 17 237 0
-15.2344 1.1719 3.6719 17 237 0
-16.3281 1.3281 3.0469 0 244 10
-16.4844 1.4844 3.0469 0 244 10
-16.3281 1.7969 3.0469 0 244 10
-16.6406 1.4844 3.2031 0 251 3
-16.4844 1.3281 3.2031 0 251 3
-16.3281 1.4844 3.2031 0 251 3
-16.3281 1.7969 3.2031 0 251 3
-16.4844 1.9531 3.2031 0 251 3
-15.0781 1.6406 3.0469 0 244 10
-16.1719 1.6406 3.3594 3 251 0
-15.3906 1.4844 3.3594 3 251 0
-15.0781 1.7969 3.2031 0 251 3
-15.2344 1.6406 3.3594 3 251 0
-15.0781 1.6406 3.3594 3 251 0
-15.0781 1.7969 3.3594 3 251 0
-15.5469 1.3281 3.6719 17 237 0
-15.0781 1.3281 3.5156 10 244 0
-15.2344 1.3281 3.6719 17 237 0
-15.2344 1.4844 3.6719 17 237 0
-15.3906 1.7969 3.5156 10 244 0
-15.5469 1.7969 3.6719 17 237 0
-16.1719 1.9531 3.2031 0 251 3
-15.0781 2.2656 3.3594 3 251 0
-15.3906 1.9531 3.5156 10 244 0
-15.0781 2.1094 3.5156 10 244 0
-15.0781 2.2656 3.5156 10 244 0
-16.6406 0.0781 4.9219 73 181 0
-15.8594 0.2344 3.8281 24 230 0
-15.7031 0.0781 3.9844 31 223 0
-15.7031 0.2344 3.9844 31 223 0
-15.8594 0.3906 3.9844 31 223 0
-15.8594 0.5469 3.9844 31 223 0
-15.5469 0.5469 3.8281 24 230 0
-15.3906 0.5469 3.8281 24 230 0
-15.5469 0.3906 3.9844 31 223 0
-15.7031 0.8594 3.8281 24 230 0
-15.8594 0.7031 3.9844 31 223 0
-15.7031 0.8594 3.9844 31 223 0
-15.7031 1.1719 3.9844 31 223 0
-15.7031 1.0156 4.1406 38 216 0
-15.5469 0.8594 3.9844 31 223 0
-15.2344 0.7031 3.8281 24 230 0
-15.5469 1.0156 3.9844 31 223 0
-15.0781 0.7031 4.2969 45 209 0
-15.2344 1.0156 4.2969 45 209 0
-16.0156 0.2344 4.4531 52 202 0
-15.8594 0.0781 4.6094 59 195 0
-16.1719 0.3906 4.6094 59 195 0
-15.8594 0.3906 4.6094 59 195 0
-16.1719 0.0781 4.7656 66 188 0
-16.1719 0.2344 4.7656 66 188 0
-15.8594 0.2344 4.7656 66 188 0
-16.0156 0.3906 4.7656 66 188 0
-15.5469 0.2344 4.6094 59 195 0
-15.0781 0.5469 4.4531 52 202 0
-15.5469 0.3906 4.7656 66 188 0
-16.0156 0.7031 4.9219 73 181 0
-16.1719 0.8594 4.9219 73 181 0
-15.3906 0.8594 4.6094 59 195 0
-15.2344 1.0156 4.6094 59 195 0
-17.1094 1.7969 4.6094 59 195 0
-16.4844 1.4844 4.7656 66 188 0
-16.3281 2.2656 4.9219 73 181 0
-15.7031 1.3281 3.8281 24 230 0
-15.7031 1.4844 3.8281 24 230 0
-15.7031 1.6406 3.9844 31 223 0
-16.0156 1.7969 4.2969 45 209 0
-15.5469 1.4844 3.9844 31 223 0
-15.2344 1.3281 3.8281 24 230 0
-15.5469 1.6406 3.8281 24 230 0
-15.3906 1.7969 3.8281 24 230 0
-15.5469 1.6406 3.9844 31 223 0
-15.5469 1.7969 3.9844 31 223 0
-15.7031 1.9531 4.1406 38 216 0
-15.7031 1.9531 4.2969 45 209 0
-16.0156 2.4219 4.2969 45 209 0
-15.5469 1.9531 3.8281 24 230 0
-15.5469 2.1094 3.8281 24 230 0
-15.3906 2.1094 3.8281 24 230 0
-15.5469 2.1094 3.9844 31 223 0
-15.5469 2.2656 3.8281 24 230 0
-15.3906 2.2656 3.8281 24 230 0
-15.3906 2.4219 3.8281 24 230 0
-15.3906 2.1094 4.1406 38 216 0
-15.5469 2.2656 4.2969 45 209 0
-15.2344 2.2656 4.1406 38 216 0
-15.0781 2.4219 4.1406 38 216 0
-15.2344 1.7969 4.7656 66 188 0
-15.8594 2.4219 4.4531 52 202 0
-16.0156 1.9531 4.7656 66 188 0
-15.3906 2.4219 4.9219 73 181 0
-16.9531 2.8906 3.5156 10 244 0
-15.5469 2.5781 3.3594 3 251 0
-15.3906 2.7344 3.3594 3 251 0
-15.5469 2.5781 3.6719 17 237 0
-15.3906 2.7344 3.6719 17 237 0
-15.0781 2.5781 3.5156 10 244 0
-15.3906 2.8906 3.6719 17 237 0
-15.2344 3.0469 3.5156 10 244 0
-15.2344 3.0469 3.6719 17 237 0
-15.0781 3.0469 3.6719 17 237 0
-15.0781 3.5156 3.2031 0 251 3
-15.3906 3.2031 3.5156 10 244 0
-15.2344 3.2031 3.6719 17 237 0
-15.2344 3.3594 3.6719 17 237 0
-15.0781 3.3594 3.6719 17 237 0
-15.2344 3.5156 3.5156 10 244 0
-15.2344 3.6719 3.5156 10 244 0
-15.2344 3.5156 3.6719 17 237 0
-15.0781 3.5156 3.6719 17 237 0
-15.0781 3.6719 3.6719 17 237 0
-15.2344 3.8281 3.3594 3 251 0
-15.2344 4.1406 3.3594 3 251 0
-15.0781 4.2969 3.3594 3 251 0
-15.0781 3.8281 3.5156 10 244 0
-15.2344 3.9844 3.5156 10 244 0
-15.0781 3.9844 3.5156 10 244 0
-15.0781 3.8281 3.6719 17 237 0
-15.0781 3.9844 3.6719 17 237 0
-15.2344 4.2969 3.5156 10 244 0
-15.0781 4.1406 3.6719 17 237 0
-15.0781 4.4531 3.6719 17 237 0
-15.0781 4.6094 3.6719 17 237 0
-16.4844 3.2031 4.2969 45 209 0
-16.6406 3.5156 4.2969 45 209 0
-17.1094 2.8906 4.4531 52 202 0
-16.9531 2.8906 4.6094 59 195 0
-16.3281 2.5781 4.9219 73 181 0
-16.4844 3.2031 4.4531 52 202 0
-15.7031 2.5781 4.2969 45 209 0
-16.0156 2.8906 4.1406 38 216 0
-15.8594 2.8906 4.2969 45 209 0
-15.3906 2.7344 3.8281 24 230 0
-15.2344 2.5781 3.8281 24 230 0
-15.2344 2.7344 3.8281 24 230 0
-15.2344 2.7344 3.9844 31 223 0
-15.2344 3.0469 3.8281 24 230 0
-15.2344 2.8906 3.9844 31 223 0
-15.0781 2.8906 3.9844 31 223 0
-15.5469 2.7344 4.2969 45 209 0
-15.2344 2.5781 4.1406 38 216 0
-15.2344 2.7344 4.2969 45 209 0
-15.5469 3.0469 4.2969 45 209 0
-15.0781 2.8906 4.1406 38 216 0
-16.1719 3.2031 4.1406 38 216 0
-15.8594 3.2031 4.1406 38 216 0
-15.7031 3.2031 4.1406 38 216 0
-15.8594 3.2031 4.2969 45 209 0
-15.2344 3.2031 3.8281 24 230 0
-15.0781 3.3594 3.8281 24 230 0
-15.0781 3.2031 3.9844 31 223 0
-15.3906 3.6719 3.9844 31 223 0
-15.5469 3.3594 4.1406 38 216 0
-15.2344 3.2031 4.1406 38 216 0
-15.2344 3.2031 4.2969 45 209 0
-15.2344 3.3594 4.2969 45 209 0
-15.5469 3.5156 4.1406 38 216 0
-15.3906 3.5156 4.1406 38 216 0
-15.5469 3.6719 4.1406 38 216 0
-15.3906 3.6719 4.1406 38 216 0
-15.2344 3.6719 4.1406 38 216 0
-15.2344 3.5156 4.2969 45 209 0
-15.8594 2.8906 4.4531 52 202 0
-16.1719 2.7344 4.9219 73 181 0
-15.8594 2.5781 4.7656 66 188 0
-16.0156 3.0469 4.9219 73 181 0
-15.8594 2.8906 4.9219 73 181 0
-15.3906 3.0469 4.4531 52 202 0
-15.5469 3.2031 4.4531 52 202 0
-15.3906 3.5156 4.4531 52 202 0
-17.1094 3.8281 4.4531 52 202 0
-17.1094 3.8281 4.6094 59 195 0
-15.8594 4.1406 4.2969 45 209 0
-15.8594 4.2969 4.2969 45 209 0
-15.3906 3.8281 3.8281 24 230 0
-15.3906 3.9844 3.9844 31 223 0
-15.5469 4.1406 3.9844 31 223 0
-15.0781 4.2969 3.8281 24 230 0
-15.3906 3.8281 4.1406 38 216 0
-15.2344 3.8281 4.2969 45 209 0
-15.0781 3.9844 4.2969 45 209 0
-15.5469 4.2969 4.1406 38 216 0
-15.7031 4.9219 3.8281 24 230 0
-15.7031 4.9219 3.9844 31 223 0
-15.0781 4.4531 3.8281 24 230 0
-15.2344 4.1406 4.4531 52 202 0
-16.1719 4.4531 4.6094 59 195 0
-11.9531 0.0781 1.0156 0 153 101
-11.9531 0.0781 1.1719 0 160 94
-11.6406 2.2656 0.8594 0 146 108
-11.6406 2.4219 0.8594 0 146 108
-11.4844 2.4219 1.0156 0 153 101
-12.2656 0.2344 1.3281 0 167 87
-12.1094 0.0781 1.3281 0 167 87
-12.1094 0.2344 1.3281 0 167 87
-12.2656 0.3906 1.3281 0 167 87
-12.4219 0.5469 1.3281 0 167 87
-12.2656 0.5469 1.3281 0 167 87
-12.1094 0.3906 1.3281 0 167 87
-12.4219 0.7031 1.3281 0 167 87
-12.4219 0.7031 1.4844 0 174 80
-12.2656 0.8594 1.4844 0 174 80
-12.2656 1.0156 1.4844 0 174 80
-12.4219 2.2656 1.4844 0 174 80
-12.2656 2.4219 1.4844 0 174 80
-14.9219 2.5781 1.4844 0 174 80
-13.9844 2.8906 1.6406 0 181 73
-14.6094 3.5156 1.9531 0 195 59
-12.7344 2.7344 1.4844 0 174 80
-13.5156 3.3594 1.7969 0 188 66
-13.5156 3.6719 1.7969 0 188 66
-14.6094 4.4531 2.1094 0 202 52
-14.4531 4.9219 2.1094 0 202 52
-12.8906 4.4531 1.7969 0 188 66
-13.0469 4.1406 1.9531 0 195 59
-11.4844 2.5781 0.8594 0 146 108
-11.3281 2.5781 0.8594 0 146 108
-11.3281 2.7344 0.8594 0 146 108
-11.4844 2.8906 0.7031 0 139 115
-11.4844 2.8906 0.8594 0 146 108
-11.3281 2.8906 0.8594 0 146 108
-11.4844 2.5781 1.0156 0 153 101
-11.4844 2.7344 1.0156 0 153 101
-11.3281 3.0469 1.0156 0 153 101
-10.8594 3.3594 0.5469 0 132 122
-11.1719 2.7344 0.8594 0 146 108
-11.1719 3.0469 0.7031 0 139 115
-11.1719 2.8906 0.8594 0 146 108
-11.0156 3.0469 0.8594 0 146 108
-11.1719 2.8906 1.0156 0 153 101
-11.1719 3.2031 0.7031 0 139 115
-11.0156 3.2031 0.7031 0 139 115
-11.0156 3.3594 0.7031 0 139 115
-11.1719 3.3594 0.8594 0 146 108
-11.0156 3.3594 0.8594 0 146 108
-11.1719 3.5156 0.7031 0 139 115
-11.0156 3.6719 0.7031 0 139 115
-11.0156 3.6719 0.8594 0 146 108
-10.7031 3.5156 0.7031 0 139 115
-10.8594 3.6719 0.7031 0 139 115
-10.8594 3.5156 0.8594 0 146 108
-10.7031 3.9844 0.7031 0 139 115
-10.7031 4.1406 0.7031 0 139 115
-10.7031 4.2969 0.7031 0 139 115
-11.1719 4.6094 1.1719 0 160 94
-10.3906 4.4531 0.8594 0 146 108
-10.5469 4.4531 1.0156 0 153 101
-10.5469 4.4531 1.1719 0 160 94
-10.2344 4.4531 1.0156 0 153 101
-12.2656 2.7344 1.4844 0 174 80
-12.1094 2.5781 1.4844 0 174 80
-11.9531 2.5781 1.4844 0 174 80
-11.4844 2.5781 1.4844 0 174 80
-12.4219 3.2031 1.6406 0 181 73
-12.4219 3.6719 1.7969 0 188 66
-11.9531 3.6719 1.6406 0 181 73
-11.7969 3.2031 1.6406 0 181 73
-11.4844 3.6719 1.6406 0 181 73
-10.5469 3.0469 1.4844 0 174 80
-11.1719 3.2031 1.4844 0 174 80
-10.7031 3.5156 1.4844 0 174 80
-10.7031 3.6719 1.4844 0 174 80
-10.0781 3.2031 1.3281 0 167 87
-10.2344 3.2031 1.4844 0 174 80
-10.3906 3.5156 1.4844 0 174 80
-10.3906 3.6719 1.4844 0 174 80
-10.0781 3.5156 1.4844 0 174 80
-12.2656 3.9844 1.7969 0 188 66
-12.1094 4.2969 1.7969 0 188 66
-11.7969 3.9844 1.6406 0 181 73
-11.6406 4.2969 1.6406 0 181 73
-11.1719 4.2969 1.6406 0 181 73
-10.0781 3.8281 1.4844 0 174 80
-10.3906 4.2969 1.4844 0 174 80
-10.5469 4.1406 1.6406 0 181 73
-14.7656 0.3906 2.7344 0 230 24
-14.7656 0.3906 3.0469 0 244 10
-14.6094 0.5469 3.0469 0 244 10
-14.4531 0.7031 2.5781 0 223 31
-14.7656 0.8594 3.0469 0 244 10
-14.6094 0.7031 3.0469 0 244 10
-14.4531 0.7031 3.0469 0 244 10
-14.7656 0.0781 3.3594 3 251 0
-14.7656 0.2344 3.3594 3 251 0
-14.9219 0.3906 3.2031 0 251 3
-14.7656 0.3906 3.3594 3 251 0
-14.7656 0.5469 3.3594 3 251 0
-14.4531 0.3906 3.3594 3 251 0
-14.6094 0.5469 3.3594 3 251 0
-14.4531 0.5469 3.3594 3 251 0
-14.7656 0.2344 3.5156 10 244 0
-14.9219 0.5469 3.5156 10 244 0
-13.9844 0.5469 3.6719 17 237 0
-14.7656 0.7031 3.2031 0 251 3
-14.9219 0.8594 3.2031 0 251 3
-14.6094 0.8594 3.2031 0 251 3
-14.6094 0.8594 3.3594 3 251 0
-14.9219 1.1719 3.2031 0 251 3
-14.4531 1.0156 3.2031 0 251 3
-14.4531 1.1719 3.2031 0 251 3
-14.4531 1.0156 3.3594 3 251 0
-14.7656 0.8594 3.5156 10 244 0
-14.4531 1.0156 3.5156 10 244 0
-14.4531 1.1719 3.5156 10 244 0
-14.2969 0.8594 3.6719 17 237 0
-14.2969 1.1719 3.6719 17 237 0
-13.9844 1.0156 3.5156 10 244 0
-13.9844 1.1719 3.6719 17 237 0
-12.7344 0.5469 3.6719 17 237 0
-13.6719 0.7031 3.5156 10 244 0
-13.6719 0.8594 3.5156 10 244 0
-12.5781 0.7031 3.6719 17 237 0
-12.5781 0.8594 3.6719 17 237 0
-14.9219 1.3281 3.0469 0 244 10
-14.4531 1.7969 3.0469 0 244 10
-14.7656 2.1094 2.8906 0 237 17
-14.4531 2.1094 3.0469 0 244 10
-14.2969 1.9531 2.8906 0 237 17
-14.2969 1.9531 3.0469 0 244 10
-14.1406 2.1094 3.0469 0 244 10
-14.2969 2.2656 2.8906 0 237 17
-14.2969 2.4219 2.8906 0 237 17
-14.2969 2.2656 3.0469 0 244 10
-14.1406 2.4219 3.0469 0 244 10
-14.7656 1.3281 3.2031 0 251 3
-14.4531 1.4844 3.3594 3 251 0
-14.7656 1.7969 3.2031 0 251 3
-14.9219 1.4844 3.5156 10 244 0
-14.7656 1.4844 3.6719 17 237 0
-14.9219 1.6406 3.6719 17 237 0
-14.9219 1.7969 3.6719 17 237 0
-13.9844 1.6406 3.6719 17 237 0
-14.9219 2.1094 3.3594 3 251 0
-14.7656 2.1094 3.3594 3 251 0
-14.9219 1.9531 3.6719 17 237 0
-14.7656 2.2656 3.5156 10 244 0
-14.7656 2.4219 3.5156 10 244 0
-14.2969 1.9531 3.2031 0 251 3
-13.3594 1.4844 3.3594 3 251 0
-13.3594 1.7969 3.3594 3 251 0
-13.3594 1.7969 3.5156 10 244 0
-13.6719 2.1094 3.6719 17 237 0
-14.6094 0.5469 4.1406 38 216 0
-13.8281 0.3906 3.8281 24 230 0
-14.7656 1.1719 3.8281 24 230 0
-13.9844 1.1719 4.1406 38 216 0
-13.8281 1.0156 4.2969 45 209 0
-14.9219 0.3906 4.4531 52 202 0
-13.6719 0.5469 3.8281 24 230 0
-13.6719 0.5469 4.1406 38 216 0
-13.5156 0.7031 4.1406 38 216 0
-13.0469 0.8594 3.9844 31 223 0
-12.7344 0.7031 3.8281 24 230 0
-12.8906 1.1719 3.8281 24 230 0
-13.0469 1.0156 3.9844 31 223 0
-13.0469 1.1719 3.9844 31 223 0
-12.8906 1.1719 3.9844 31 223 0
-14.6094 1.4844 3.8281 24 230 0
-14.6094 1.7969 3.9844 31 223 0
-14.2969 1.4844 3.8281 24 230 0
-14.9219 2.4219 3.8281 24 230 0
-14.2969 1.9531 3.8281 24 230 0
-13.5156 1.4844 3.9844 31 223 0
-13.6719 1.6406 4.1406 38 216 0
-13.6719 1.6406 4.2969 45 209 0
-13.2031 1.6406 4.1406 38 216 0
-13.2031 1.7969 4.1406 38 216 0
-12.8906 1.4844 3.8281 24 230 0
-12.8906 1.3281 3.9844 31 223 0
-12.7344 1.3281 3.9844 31 223 0
-12.7344 1.4844 3.9844 31 223 0
-12.5781 1.4844 3.9844 31 223 0
-13.0469 1.3281 4.1406 38 216 0
-13.0469 1.4844 4.1406 38 216 0
-13.0469 1.6406 4.1406 38 216 0
-12.8906 1.6406 4.1406 38 216 0
-13.0469 1.7969 4.1406 38 216 0
-12.7344 1.7969 4.1406 38 216 0
-13.6719 1.9531 4.1406 38 216 0
-13.6719 1.9531 4.2969 45 209 0
-13.6719 2.2656 4.2969 45 209 0
-13.0469 1.9531 4.1406 38 216 0
-12.8906 2.1094 4.1406 38 216 0
-12.5781 1.9531 4.1406 38 216 0
-13.0469 2.2656 4.2969 45 209 0
-13.6719 2.4219 4.4531 52 202 0
-12.4219 0.2344 3.6719 17 237 0
-12.2656 0.2344 3.6719 17 237 0
-12.4219 0.3906 3.6719 17 237 0
-12.2656 0.3906 3.6719 17 237 0
-12.2656 0.5469 3.6719 17 237 0
-12.4219 0.7031 3.6719 17 237 0
-12.1094 1.3281 3.3594 3 251 0
-11.6406 2.4219 3.3594 3 251 0
-12.4219 0.7031 3.8281 24 230 0
-12.4219 0.8594 3.8281 24 230 0
-10.2344 0.5469 4.9219 73 181 0
-10.3906 0.8594 4.9219 73 181 0
-10.0781 1.4844 4.9219 73 181 0
-10.0781 1.6406 4.9219 73 181 0
-10.0781 1.9531 4.9219 73 181 0
-10.0781 2.2656 4.9219 73 181 0
-14.1406 2.7344 2.8906 0 237 17
-14.2969 2.7344 3.0469 0 244 10
-14.1406 2.7344 3.0469 0 244 10
-14.1406 2.8906 3.0469 0 244 10
-13.9844 3.0469 3.0469 0 244 10
-14.1406 3.2031 3.0469 0 244 10
-14.7656 2.7344 3.3594 3 251 0
-14.9219 3.0469 3.3594 3 251 0
-14.7656 2.7344 3.5156 10 244 0
-14.2969 2.8906 3.2031 0 251 3
-14.6094 3.2031 3.2031 0 251 3
-14.7656 3.5156 3.2031 0 251 3
-14.6094 3.6719 3.2031 0 251 3
-14.9219 3.3594 3.6719 17 237 0
-14.9219 3.6719 3.5156 10 244 0
-14.7656 3.9844 3.3594 3 251 0
-14.9219 4.1406 3.6719 17 237 0
-13.8281 4.1406 3.5156 10 244 0
-13.8281 4.1406 3.6719 17 237 0
-13.9844 4.2969 3.6719 17 237 0
-14.9219 4.4531 3.3594 3 251 0
-14.9219 4.7656 3.3594 3 251 0
-14.9219 4.4531 3.5156 10 244 0
-14.7656 4.7656 3.5156 10 244 0
-13.6719 3.9844 3.5156 10 244 0
-13.6719 4.1406 3.6719 17 237 0
-13.6719 4.6094 3.5156 10 244 0
-13.6719 4.4531 3.6719 17 237 0
-13.2031 4.6094 3.5156 10 244 0
-12.5781 4.4531 3.6719 17 237 0
-12.5781 4.6094 3.6719 17 237 0
-14.9219 2.5781 3.9844 31 223 0
-14.6094 2.7344 4.1406 38 216 0
-14.6094 3.0469 4.1406 38 216 0
-14.2969 2.8906 3.9844 31 223 0
-14.7656 3.5156 3.9844 31 223 0
-14.6094 3.5156 3.9844 31 223 0
-14.7656 3.2031 4.2969 45 209 0
-14.9219 3.5156 4.2969 45 209 0
-14.6094 3.6719 4.2969 45 209 0
-14.2969 3.5156 3.8281 24 230 0
-13.9844 3.5156 3.8281 24 230 0
-13.9844 3.6719 3.8281 24 230 0
-13.8281 3.6719 3.8281 24 230 0
-14.2969 3.2031 4.1406 38 216 0
-14.1406 3.3594 4.1406 38 216 0
-13.9844 3.5156 4.1406 38 216 0
-13.0469 3.3594 3.8281 24 230 0
-12.8906 3.5156 3.8281 24 230 0
-12.8906 3.6719 3.8281 24 230 0
-13.0469 3.2031 4.1406 38 216 0
-12.8906 3.3594 4.1406 38 216 0
-12.7344 3.5156 4.1406 38 216 0
-12.5781 3.6719 4.1406 38 216 0
-14.9219 3.8281 4.2969 45 209 0
-13.8281 3.8281 3.8281 24 230 0
-13.8281 3.9844 3.8281 24 230 0
-13.8281 3.8281 3.9844 31 223 0
-14.2969 4.1406 3.8281 24 230 0
-14.2969 4.1406 3.9844 31 223 0
-13.9844 4.1406 3.8281 24 230 0
-13.8281 4.1406 3.8281 24 230 0
-13.8281 4.1406 3.9844 31 223 0
-14.1406 3.9844 4.1406 38 216 0
-14.4531 4.6094 3.8281 24 230 0
-14.7656 4.4531 4.1406 38 216 0
-14.2969 4.9219 3.8281 24 230 0
-13.9844 4.6094 4.1406 38 216 0
-13.8281 4.7656 4.1406 38 216 0
-14.2969 4.2969 4.4531 52 202 0
-13.6719 3.9844 3.8281 24 230 0
-13.5156 3.9844 3.8281 24 230 0
-13.6719 4.2969 3.8281 24 230 0
-13.5156 4.2969 3.8281 24 230 0
-12.7344 3.9844 3.9844 31 223 0
-12.7344 4.1406 3.9844 31 223 0
-12.5781 4.2969 3.9844 31 223 0
-12.8906 4.1406 4.2969 45 209 0
-12.7344 4.1406 4.1406 38 216 0
-13.5156 4.6094 3.8281 24 230 0
-12.5781 4.6094 3.8281 24 230 0
-12.7344 4.6094 3.9844 31 223 0
-12.5781 4.9219 3.9844 31 223 0
-12.7344 4.4531 4.1406 38 216 0
-12.7344 4.7656 4.1406 38 216 0
-12.5781 4.9219 4.1406 38 216 0
-13.5156 4.7656 4.4531 52 202 0
-11.4844 2.7344 3.3594 3 251 0
-11.3281 2.8906 3.3594 3 251 0
-11.3281 3.0469 3.3594 3 251 0
-12.1094 3.3594 3.6719 17 237 0
-11.9531 3.5156 3.6719 17 237 0
-11.9531 3.6719 3.6719 17 237 0
-11.7969 3.6719 3.6719 17 237 0
-11.3281 3.5156 3.5156 10 244 0
-11.1719 3.2031 3.3594 3 251 0
-11.1719 3.5156 3.2031 0 251 3
-11.0156 3.5156 3.2031 0 251 3
-11.1719 3.6719 3.2031 0 251 3
-11.0156 3.6719 3.2031 0 251 3
-11.1719 3.5156 3.3594 3 251 0
-12.1094 4.1406 3.6719 17 237 0
-11.7969 3.8281 3.6719 17 237 0
-11.6406 3.8281 3.6719 17 237 0
-11.6406 3.9844 3.6719 17 237 0
-11.4844 4.2969 3.6719 17 237 0
-12.4219 4.4531 3.6719 17 237 0
-12.2656 4.6094 3.6719 17 237 0
-12.4219 4.7656 3.6719 17 237 0
-12.2656 4.7656 3.6719 17 237 0
-12.2656 4.9219 3.6719 17 237 0
-12.1094 4.9219 3.6719 17 237 0
-11.6406 4.6094 3.5156 10 244 0
-11.6406 4.6094 3.6719 17 237 0
-11.4844 4.6094 3.5156 10 244 0
-11.7969 4.9219 3.6719 17 237 0
-11.4844 4.7656 3.5156 10 244 0
-11.3281 4.7656 3.5156 10 244 0
-11.3281 4.9219 3.5156 10 244 0
-11.4844 4.7656 3.6719 17 237 0
-11.3281 4.9219 3.6719 17 237 0
-10.8594 3.9844 3.0469 0 244 10
-10.8594 4.1406 3.0469 0 244 10
-10.7031 4.2969 3.0469 0 244 10
-10.7031 4.4531 3.0469 0 244 10
-10.7031 4.6094 3.0469 0 244 10
-10.7031 4.7656 3.0469 0 244 10
-10.3906 4.9219 2.7344 0 230 24
-10.5469 4.6094 2.8906 0 237 17
-10.5469 4.7656 2.8906 0 237 17
-10.3906 4.7656 2.8906 0 237 17
-10.3906 4.9219 2.8906 0 237 17
-11.0156 3.8281 3.2031 0 251 3
-10.8594 3.8281 3.2031 0 251 3
-10.8594 4.1406 3.2031 0 251 3
-12.2656 2.5781 3.8281 24 230 0
-12.2656 2.7344 3.8281 24 230 0
-12.2656 2.8906 3.8281 24 230 0
-12.2656 3.8281 3.8281 24 230 0
-12.4219 3.8281 3.9844 31 223 0
-12.1094 3.9844 3.8281 24 230 0
-12.1094 4.2969 3.8281 24 230 0
-12.4219 4.4531 3.8281 24 230 0
-12.4219 4.6094 3.8281 24 230 0
-11.9531 4.6094 3.8281 24 230 0
-12.4219 4.7656 3.8281 24 230 0
-11.7969 4.4531 3.8281 24 230 0
-16.9531 5.5469 2.4219 0 216 38
-16.6406 5.0781 2.2656 0 209 45
-15.8594 5.0781 1.6406 0 181 73
-15.5469 5.5469 1.6406 0 181 73
-15.3906 6.0156 1.4844 0 174 80
-15.2344 6.1719 1.4844 0 174 80
-15.5469 6.1719 2.4219 0 216 38
-16.4844 6.7969 1.4844 0 174 80
-15.8594 6.4844 1.6406 0 181 73
-16.3281 5.7031 2.5781 0 223 31
-15.3906 5.0781 3.6719 17 237 0
-15.3906 5.3906 3.6719 17 237 0
-15.7031 5.3906 3.9844 31 223 0
-15.8594 5.2344 4.1406 38 216 0
-15.3906 5.0781 3.8281 24 230 0
-15.3906 5.5469 3.9844 31 223 0
-15.0781 5.3906 3.8281 24 230 0
-15.5469 5.5469 4.1406 38 216 0
-15.0781 5.7031 3.9844 31 223 0
-15.2344 5.7031 4.1406 38 216 0
-15.2344 5.8594 4.2969 45 209 0
-15.3906 6.1719 4.2969 45 209 0
-16.0156 5.5469 4.6094 59 195 0
-15.8594 5.5469 4.6094 59 195 0
-15.2344 6.4844 4.2969 45 209 0
-15.2344 6.7969 4.1406 38 216 0
-15.2344 6.9531 4.1406 38 216 0
-12.5781 5.2344 1.1719 0 160 94
-14.6094 5.8594 1.6406 0 181 73
-13.8281 5.7031 1.4844 0 174 80
-13.9844 6.1719 2.1094 0 202 52
-13.9844 5.8594 2.2656 0 209 45
-12.8906 5.2344 1.3281 0 167 87
-12.7344 5.3906 2.1094 0 202 52
-12.2656 5.0781 1.1719 0 160 94
-11.9531 5.0781 1.0156 0 153 101
-12.2656 5.0781 1.3281 0 167 87
-12.4219 5.2344 1.3281 0 167 87
-11.9531 5.5469 1.7969 0 188 66
-11.4844 5.3906 1.7969 0 188 66
-12.1094 5.3906 1.9531 0 195 59
-11.4844 5.2344 1.9531 0 195 59
-10.7031 5.2344 1.6406 0 181 73
-10.8594 5.0781 1.7969 0 188 66
-10.5469 5.0781 1.7969 0 188 66
-10.0781 5.0781 1.6406 0 181 73
-10.2344 5.0781 1.7969 0 188 66
-11.0156 6.0156 1.7969 0 188 66
-10.5469 5.8594 1.6406 0 181 73
-10.0781 5.7031 1.6406 0 181 73
-14.7656 5.0781 3.5156 10 244 0
-14.9219 5.0781 3.6719 17 237 0
-14.2969 5.3906 3.3594 3 251 0
-13.9844 5.5469 3.3594 3 251 0
-14.1406 5.2344 3.5156 10 244 0
-14.1406 5.2344 3.6719 17 237 0
-14.1406 5.5469 3.5156 10 244 0
-14.2969 5.3906 3.6719 17 237 0
-13.8281 5.8594 3.5156 10 244 0
-13.5156 5.5469 3.3594 3 251 0
-13.3594 5.5469 3.3594 3 251 0
-13.3594 5.2344 3.5156 10 244 0
-13.6719 5.5469 3.5156 10 244 0
-13.6719 5.5469 3.6719 17 237 0
-13.2031 5.7031 3.3594 3 251 0
-14.1406 7.1094 3.6719 17 237 0
-13.5156 6.7969 3.6719 17 237 0
-13.2031 6.9531 3.5156 10 244 0
-13.9844 5.0781 4.1406 38 216 0
-13.9844 5.3906 4.1406 38 216 0
-14.4531 6.0156 4.1406 38 216 0
-14.6094 6.1719 4.1406 38 216 0
-13.9844 5.7031 3.9844 31 223 0
-13.2031 5.0781 4.2969 45 209 0
-13.2031 5.3906 4.1406 38 216 0
-12.5781 5.3906 3.9844 31 223 0
-12.5781 5.0781 4.1406 38 216 0
-12.5781 5.7031 3.9844 31 223 0
-13.2031 5.7031 4.4531 52 202 0
-14.2969 7.2656 3.9844 31 223 0
-14.9219 6.4844 4.7656 66 188 0
-14.7656 6.6406 4.9219 73 181 0
-14.6094 7.1094 4.6094 59 195 0
-14.7656 6.9531 4.7656 66 188 0
-14.7656 6.9531 4.9219 73 181 0
-14.4531 6.9531 4.7656 66 188 0
-14.7656 7.2656 4.7656 66 188 0
-14.7656 7.4219 4.7656 66 188 0
-14.6094 7.4219 4.7656 66 188 0
-14.6094 7.2656 4.9219 73 181 0
-12.2656 5.2344 3.6719 17 237 0
-12.1094 5.0781 3.6719 17 237 0
-11.9531 5.2344 3.6719 17 237 0
-12.2656 5.5469 3.5156 10 244 0
-12.1094 5.5469 3.5156 10 244 0
-12.1094 5.3906 3.6719 17 237 0
-11.9531 5.5469 3.6719 17 237 0
-11.7969 5.0781 3.6719 17 237 0
-11.7969 5.2344 3.6719 17 237 0
-11.6406 5.2344 3.6719 17 237 0
-11.3281 5.2344 3.5156 10 244 0
-11.6406 5.3906 3.6719 17 237 0
-11.6406 5.5469 3.6719 17 237 0
-11.4844 5.5469 3.6719 17 237 0
-12.1094 6.0156 3.3594 3 251 0
-11.9531 6.1719 3.3594 3 251 0
-12.2656 5.7031 3.5156 10 244 0
-12.2656 5.8594 3.5156 10 244 0
-12.1094 5.7031 3.5156 10 244 0
-12.1094 5.8594 3.5156 10 244 0
-11.9531 5.8594 3.5156 10 244 0
-11.7969 6.1719 3.3594 3 251 0
-11.7969 5.7031 3.5156 10 244 0
-11.6406 5.8594 3.5156 10 244 0
-11.6406 5.7031 3.6719 17 237 0
-11.3281 5.7031 3.6719 17 237 0
-11.4844 5.8594 3.6719 17 237 0
-11.7969 6.0156 3.5156 10 244 0
-11.6406 6.0156 3.5156 10 244 0
-11.6406 6.1719 3.5156 10 244 0
-11.4844 6.0156 3.5156 10 244 0
-11.4844 6.1719 3.5156 10 244 0
-10.2344 5.0781 2.7344 0 230 24
-10.2344 5.2344 2.7344 0 230 24
-10.3906 5.2344 2.8906 0 237 17
-10.2344 5.0781 2.8906 0 237 17
-12.1094 6.6406 3.3594 3 251 0
-11.9531 6.6406 3.3594 3 251 0
-12.1094 6.7969 3.5156 10 244 0
-11.7969 6.3281 3.3594 3 251 0
-11.6406 6.3281 3.3594 3 251 0
-11.4844 6.3281 3.3594 3 251 0
-11.4844 6.4844 3.3594 3 251 0
-11.3281 6.4844 3.3594 3 251 0
-11.3281 6.3281 3.5156 10 244 0
-11.9531 6.9531 3.3594 3 251 0
-12.1094 7.1094 3.3594 3 251 0
-12.1094 7.1094 3.5156 10 244 0
-11.9531 7.2656 3.5156 10 244 0
-12.1094 7.2656 3.6719 17 237 0
-12.1094 7.4219 3.6719 17 237 0
-11.1719 6.6406 3.3594 3 251 0
-11.1719 6.3281 3.5156 10 244 0
-12.4219 5.0781 3.8281 24 230 0
-12.4219 5.3906 4.1406 38 216 0
-11.6406 5.2344 3.8281 24 230 0
-12.4219 5.8594 3.8281 24 230 0
-12.4219 5.8594 3.9844 31 223 0
-12.2656 6.0156 3.9844 31 223 0
-12.4219 6.1719 3.9844 31 223 0
-12.4219 5.7031 4.1406 38 216 0
-12.2656 6.3281 3.9844 31 223 0
-12.2656 6.4844 3.9844 31 223 0
-12.1094 6.3281 3.8281 24 230 0
-12.1094 6.4844 3.8281 24 230 0
-12.1094 6.3281 3.9844 31 223 0
-12.1094 6.6406 3.8281 24 230 0
-12.1094 6.7969 3.8281 24 230 0
-12.1094 6.9531 3.8281 24 230 0
-12.1094 7.1094 3.8281 24 230 0
-12.1094 7.2656 3.8281 24 230 0
-13.8281 8.0469 4.2969 45 209 0
-14.6094 7.5781 4.7656 66 188 0
-14.1406 7.7344 4.4531 52 202 0
-13.8281 7.8906 4.6094 59 195 0
-14.4531 8.2031 4.4531 52 202 0
-13.6719 8.3594 4.1406 38 216 0
-13.6719 8.2031 4.2969 45 209 0
-13.5156 8.5156 4.2969 45 209 0
-14.2969 8.9844 4.2969 45 209 0
-13.3594 8.8281 3.9844 31 223 0
-13.6719 8.8281 4.2969 45 209 0
-13.6719 9.2969 4.1406 38 216 0
-13.6719 9.1406 4.2969 45 209 0
-7.7344 1.6406 -0.0781 0 104 150
-6.3281 0.2344 -0.5469 0 83 171
-6.4844 0.3906 -0.3906 0 90 164
-6.3281 0.5469 -0.3906 0 90 164
-6.4844 0.5469 -0.2344 0 97 157
-6.6406 0.8594 -0.2344 0 97 157
-6.3281 0.7031 -0.2344 0 97 157
-6.4844 1.0156 -0.2344 0 97 157
-6.4844 1.1719 -0.2344 0 97 157
-6.0156 0.2344 -0.3906 0 90 164
-6.0156 0.5469 -0.3906 0 90 164
-5.7031 0.3906 -0.3906 0 90 164
-5.2344 0.0781 -0.5469 0 83 171
-5.3906 0.3906 -0.3906 0 90 164
-5.0781 0.5469 -0.5469 0 83 171
-5.2344 0.5469 -0.3906 0 90 164
-5.7031 0.7031 -0.3906 0 90 164
-6.0156 0.8594 -0.2344 0 97 157
-5.8594 0.8594 -0.2344 0 97 157
-5.7031 1.0156 -0.2344 0 97 157
-5.3906 0.8594 -0.3906 0 90 164
-5.2344 0.8594 -0.2344 0 97 157
-5.0781 1.0156 -0.2344 0 97 157
-6.3281 1.3281 -0.0781 0 104 150
-6.4844 1.4844 -0.0781 0 104 150
-6.6406 1.6406 -0.0781 0 104 150
-6.3281 1.6406 -0.0781 0 104 150
-6.1719 1.4844 -0.0781 0 104 150
-5.7031 1.3281 -0.2344 0 97 157
-5.8594 1.4844 -0.0781 0 104 150
-6.0156 1.6406 -0.0781 0 104 150
-5.7031 1.6406 -0.0781 0 104 150
-5.8594 1.7969 -0.0781 0 104 150
-5.7031 1.7969 -0.0781 0 104 150
-5.5469 1.4844 -0.2344 0 97 157
-5.3906 1.4844 -0.2344 0 97 157
-5.5469 1.6406 -0.0781 0 104 150
-5.0781 1.6406 -0.2344 0 97 157
-5.2344 1.6406 -0.0781 0 104 150
-5.0781 1.7969 -0.0781 0 104 150
-5.5469 1.9531 -0.0781 0 104 150
-5.3906 1.9531 -0.0781 0 104 150
-5.0781 2.1094 -0.0781 0 104 150
-4.9219 0.0781 -0.5469 0 83 171
-4.4531 0.0781 -0.5469 0 83 171
-4.6094 0.2344 -0.5469 0 83 171
-4.9219 0.5469 -0.5469 0 83 171
-4.4531 0.3906 -0.5469 0 83 171
-4.4531 0.3906 -0.2344 0 97 157
-4.4531 0.5469 -0.2344 0 97 157
-4.2969 0.0781 -0.5469 0 83 171
-4.1406 0.2344 -0.5469 0 83 171
-4.2969 0.5469 -0.5469 0 83 171
-3.9844 0.3906 -0.5469 0 83 171
-4.9219 0.7031 -0.3906 0 90 164
-4.7656 0.7031 -0.3906 0 90 164
-4.4531 0.7031 -0.3906 0 90 164
-4.6094 0.8594 -0.3906 0 90 164
-4.4531 0.8594 -0.3906 0 90 164
-4.4531 1.0156 -0.3906 0 90 164
-4.7656 1.0156 -0.2344 0 97 157
-4.6094 1.1719 -0.2344 0 97 157
-4.1406 0.7031 -0.5469 0 83 171
-4.1406 0.8594 -0.5469 0 83 171
-4.2969 0.8594 -0.3906 0 90 164
-3.9844 0.8594 -0.3906 0 90 164
-4.2969 1.0156 -0.3906 0 90 164
-4.1406 1.0156 -0.3906 0 90 164
-4.2969 1.1719 -0.3906 0 90 164
-4.1406 1.1719 -0.3906 0 90 164
-3.8281 1.0156 -0.3906 0 90 164
-3.9844 1.1719 -0.3906 0 90 164
-3.8281 1.1719 -0.3906 0 90 164
-4.2969 0.7031 -0.2344 0 97 157
-4.2969 0.8594 -0.2344 0 97 157
-4.1406 0.8594 -0.2344 0 97 157
-3.6719 1.1719 -0.3906 0 90 164
-4.7656 1.3281 -0.2344 0 97 157
-4.6094 1.4844 -0.2344 0 97 157
-4.4531 1.4844 -0.2344 0 97 157
-4.9219 1.6406 -0.2344 0 97 157
-4.7656 1.7969 -0.2344 0 97 157
-4.9219 1.7969 -0.0781 0 104 150
-4.4531 1.6406 -0.2344 0 97 157
-4.6094 1.7969 -0.2344 0 97 157
-3.9844 1.3281 -0.3906 0 90 164
-3.8281 1.4844 -0.3906 0 90 164
-3.8281 1.6406 -0.3906 0 90 164
-3.8281 1.7969 -0.3906 0 90 164
-4.2969 1.6406 -0.2344 0 97 157
-4.1406 1.6406 -0.2344 0 97 157
-4.2969 1.7969 -0.2344 0 97 157
-4.1406 1.7969 -0.2344 0 97 157
-3.9844 1.7969 -0.2344 0 97 157
-4.7656 1.9531 -0.0781 0 104 150
-4.9219 2.1094 -0.0781 0 104 150
-4.4531 1.9531 -0.2344 0 97 157
-4.6094 1.9531 -0.0781 0 104 150
-4.4531 1.9531 -0.0781 0 104 150
-4.6094 2.1094 -0.0781 0 104 150
-4.4531 2.1094 -0.0781 0 104 150
-4.7656 2.2656 -0.0781 0 104 150
-4.6094 2.2656 -0.0781 0 104 150
-4.4531 2.2656 -0.0781 0 104 150
-4.1406 1.9531 -0.2344 0 97 157
-4.2969 2.1094 -0.0781 0 104 150
-3.9844 1.9531 -0.2344 0 97 157
-3.8281 1.9531 -0.2344 0 97 157
-3.9844 2.1094 -0.2344 0 97 157
-3.8281 2.1094 -0.2344 0 97 157
-4.2969 2.2656 -0.0781 0 104 150
-4.1406 2.2656 -0.0781 0 104 150
-4.2969 2.4219 -0.0781 0 104 150
-4.1406 2.4219 -0.0781 0 104 150
-3.8281 2.2656 -0.0781 0 104 150
-3.9844 2.4219 -0.0781 0 104 150
-3.6719 1.3281 -0.3906 0 90 164
-3.5156 1.3281 -0.3906 0 90 164
-3.5156 1.4844 -0.3906 0 90 164
-3.6719 1.7969 -0.3906 0 90 164
-3.6719 1.9531 -0.3906 0 90 164
-3.5156 1.9531 -0.3906 0 90 164
-3.6719 2.1094 -0.2344 0 97 157
-3.5156 2.1094 -0.2344 0 97 157
-3.3594 2.1094 -0.2344 0 97 157
-3.6719 2.2656 -0.2344 0 97 157
-3.5156 2.2656 -0.2344 0 97 157
-3.5156 2.4219 -0.2344 0 97 157
-3.6719 2.4219 -0.0781 0 104 150
-3.3594 2.2656 -0.2344 0 97 157
-3.2031 2.2656 -0.2344 0 97 157
-3.3594 2.4219 -0.2344 0 97 157
-3.2031 2.4219 -0.2344 0 97 157
-1.0156 0.0781 -1.0156 0 62 192
-0.8594 0.0781 -1.1719 0 55 199
-0.7031 0.0781 -1.1719 0 55 199
-0.8594 0.2344 -1.1719 0 55 199
-0.7031 0.2344 -1.1719 0 55 199
-0.8594 0.2344 -1.0156 0 62 192
-0.7031 0.2344 -1.0156 0 62 192
-0.5469 0.0781 -1.1719 0 55 199
-0.3906 0.0781 -1.1719 0 55 199
-0.5469 0.2344 -1.1719 0 55 199
-0.3906 0.2344 -1.1719 0 55 199
-0.2344 0.2344 -1.1719 0 55 199
-0.0781 0.2344 -1.1719 0 55 199
-0.5469 0.3906 -1.1719 0 55 199
-0.3906 0.3906 -1.1719 0 55 199
-0.5469 0.3906 -1.0156 0 62 192
-0.3906 0.5469 -1.0156 0 62 192
-0.2344 0.3906 -1.1719 0 55 199
-0.0781 0.3906 -1.1719 0 55 199
-0.2344 0.5469 -1.1719 0 55 199
-0.0781 0.5469 -1.1719 0 55 199
-0.0781 0.7031 -1.1719 0 55 199
-1.1719 0.2344 -0.0781 0 104 150
-1.0156 0.3906 -0.0781 0 104 150
-4.1406 2.5781 -0.0781 0 104 150
-3.9844 2.5781 -0.0781 0 104 150
-3.8281 2.5781 -0.0781 0 104 150
-3.8281 2.7344 -0.0781 0 104 150
-3.8281 2.8906 -0.0781 0 104 150
-3.6719 2.5781 -0.0781 0 104 150
-3.5156 2.5781 -0.0781 0 104 150
-3.5156 2.7344 -0.0781 0 104 150
-3.3594 2.5781 -0.2344 0 97 157
-3.2031 2.7344 -0.0781 0 104 150
-3.6719 3.0469 -0.0781 0 104 150
-3.3594 2.8906 -0.0781 0 104 150
-3.2031 2.8906 -0.0781 0 104 150
-3.3594 3.0469 -0.0781 0 104 150
-3.0469 2.5781 -0.2344 0 97 157
-2.8906 2.7344 -0.2344 0 97 157
-2.8906 2.8906 -0.2344 0 97 157
-3.0469 2.8906 -0.0781 0 104 150
-3.0469 3.0469 -0.0781 0 104 150
-2.7344 3.0469 -0.2344 0 97 157
-3.6719 3.3594 -0.0781 0 104 150
-3.3594 3.5156 -0.0781 0 104 150
-3.2031 3.6719 -0.0781 0 104 150
-2.8906 3.2031 -0.0781 0 104 150
-2.7344 3.2031 -0.2344 0 97 157
-2.5781 3.2031 -0.2344 0 97 157
-2.5781 3.3594 -0.0781 0 104 150
-3.0469 3.6719 -0.0781 0 104 150
-2.8906 3.6719 -0.0781 0 104 150
-2.8906 3.8281 -0.0781 0 104 150
-2.7344 3.8281 -0.0781 0 104 150
-2.7344 3.9844 -0.0781 0 104 150
-2.5781 4.1406 -0.0781 0 104 150
-2.5781 4.2969 -0.0781 0 104 150
-2.4219 4.2969 -0.0781 0 104 150
-2.4219 4.4531 -0.0781 0 104 150
-2.2656 4.6094 -0.0781 0 104 150
-7.8906 1.7969 0.0781 0 111 143
-8.6719 2.4219 0.3906 0 125 129
-8.3594 2.4219 0.3906 0 125 129
-8.2031 2.4219 0.3906 0 125 129
-7.5781 2.2656 0.2344 0 118 136
-7.5781 2.4219 0.3906 0 125 129
-6.4844 1.7969 0.0781 0 111 143
-6.3281 1.7969 0.0781 0 111 143
-7.1094 1.9531 0.0781 0 111 143
-6.6406 1.9531 0.0781 0 111 143
-6.6406 2.1094 0.2344 0 118 136
-6.4844 2.1094 0.0781 0 111 143
-6.7969 2.2656 0.2344 0 118 136
-6.6406 2.4219 0.2344 0 118 136
-6.3281 2.2656 0.0781 0 111 143
-6.4844 2.2656 0.2344 0 118 136
-6.3281 2.2656 0.2344 0 118 136
-6.3281 2.4219 0.2344 0 118 136
-6.0156 1.9531 0.0781 0 111 143
-5.8594 1.9531 0.0781 0 111 143
-5.7031 2.1094 0.0781 0 111 143
-6.1719 2.2656 0.0781 0 111 143
-6.1719 2.4219 0.2344 0 118 136
-5.8594 2.2656 0.0781 0 111 143
-5.7031 2.4219 0.0781 0 111 143
-5.5469 2.1094 0.0781 0 111 143
-5.3906 2.2656 0.0781 0 111 143
-5.5469 2.4219 0.0781 0 111 143
-5.3906 2.4219 0.0781 0 111 143
-5.2344 2.2656 0.0781 0 111 143
-5.0781 2.2656 0.0781 0 111 143
-8.8281 3.5156 0.5469 0 132 122
-8.6719 2.7344 0.3906 0 125 129
-8.5156 3.3594 0.5469 0 132 122
-8.3594 3.5156 0.5469 0 132 122
-8.0469 3.2031 0.5469 0 132 122
-7.8906 3.5156 0.5469 0 132 122
-7.7344 3.6719 0.5469 0 132 122
-8.9844 3.8281 0.5469 0 132 122
-9.7656 4.2969 1.0156 0 153 101
-9.4531 4.1406 1.0156 0 153 101
-8.9844 3.9844 0.7031 0 139 115
-8.8281 3.9844 0.8594 0 146 108
-8.9844 4.1406 0.8594 0 146 108
-8.9844 3.9844 1.0156 0 153 101
-8.5156 3.8281 0.5469 0 132 122
-8.2031 3.8281 0.5469 0 132 122
-8.6719 3.9844 0.7031 0 139 115
-8.5156 3.9844 0.7031 0 139 115
-8.6719 3.9844 0.8594 0 146 108
-8.5156 3.9844 0.8594 0 146 108
-8.3594 3.9844 0.7031 0 139 115
-8.3594 3.9844 0.8594 0 146 108
-8.2031 3.9844 0.8594 0 146 108
-7.8906 3.8281 0.7031 0 139 115
-8.0469 3.9844 0.7031 0 139 115
-8.0469 3.9844 0.8594 0 146 108
-7.8906 3.9844 0.8594 0 146 108
-7.7344 3.8281 0.7031 0 139 115
-7.5781 3.9844 0.8594 0 146 108
-9.7656 3.2031 1.3281 0 167 87
-9.9219 3.6719 1.4844 0 174 80
-9.6094 3.6719 1.4844 0 174 80
-9.9219 3.8281 1.4844 0 174 80
-9.6094 3.8281 1.4844 0 174 80
-9.4531 3.8281 1.4844 0 174 80
-9.4531 3.9844 1.4844 0 174 80
-9.9219 4.1406 1.4844 0 174 80
-9.6094 4.2969 1.4844 0 174 80
-9.4531 4.2969 1.4844 0 174 80
-9.1406 3.8281 1.3281 0 167 87
-9.1406 3.9844 1.4844 0 174 80
-8.8281 3.9844 1.3281 0 167 87
-9.1406 4.2969 1.4844 0 174 80
-8.9844 4.2969 1.4844 0 174 80
-8.6719 3.9844 1.3281 0 167 87
-8.5156 4.1406 1.3281 0 167 87
-8.6719 4.2969 1.3281 0 167 87
-8.3594 4.1406 1.3281 0 167 87
-8.5156 4.4531 1.3281 0 167 87
-8.3594 4.6094 1.3281 0 167 87
-8.2031 4.6094 1.3281 0 167 87
-8.0469 4.7656 1.3281 0 167 87
-7.2656 3.0469 0.3906 0 125 129
-6.7969 3.0469 0.3906 0 125 129
-6.6406 3.0469 0.3906 0 125 129
-6.4844 3.0469 0.3906 0 125 129
-7.4219 3.2031 0.3906 0 125 129
-7.1094 3.2031 0.3906 0 125 129
-6.9531 3.3594 0.3906 0 125 129
-7.2656 3.6719 0.5469 0 132 122
-6.7969 3.2031 0.3906 0 125 129
-6.6406 3.2031 0.3906 0 125 129
-6.7969 3.3594 0.3906 0 125 129
-6.4844 3.3594 0.3906 0 125 129
-6.3281 3.3594 0.3906 0 125 129
-6.6406 3.5156 0.5469 0 132 122
-6.7969 3.6719 0.5469 0 132 122
-6.3281 3.6719 0.5469 0 132 122
-6.0156 3.0469 0.2344 0 118 136
-5.2344 2.5781 0.0781 0 111 143
-5.5469 3.0469 0.0781 0 111 143
-5.8594 3.2031 0.2344 0 118 136
-5.7031 3.2031 0.2344 0 118 136
-6.1719 3.2031 0.3906 0 125 129
-6.1719 3.5156 0.3906 0 125 129
-6.1719 3.6719 0.5469 0 132 122
-5.8594 3.5156 0.3906 0 125 129
-5.7031 3.6719 0.3906 0 125 129
-5.5469 3.2031 0.2344 0 118 136
-5.3906 3.2031 0.2344 0 118 136
-5.3906 3.3594 0.2344 0 118 136
-5.2344 3.2031 0.2344 0 118 136
-5.0781 3.2031 0.2344 0 118 136
-5.2344 3.3594 0.2344 0 118 136
-5.0781 3.5156 0.2344 0 118 136
-5.5469 3.5156 0.3906 0 125 129
-5.5469 3.6719 0.3906 0 125 129
-5.3906 3.6719 0.3906 0 125 129
-5.0781 3.6719 0.3906 0 125 129
-7.2656 3.8281 0.5469 0 132 122
-6.9531 3.8281 0.5469 0 132 122
-6.6406 3.8281 0.5469 0 132 122
-6.7969 3.9844 0.5469 0 132 122
-6.6406 3.9844 0.5469 0 132 122
-6.4844 3.8281 0.5469 0 132 122
-6.3281 3.8281 0.5469 0 132 122
-6.4844 4.1406 0.5469 0 132 122
-7.4219 3.8281 0.7031 0 139 115
-7.1094 3.8281 0.7031 0 139 115
-6.9531 3.8281 0.7031 0 139 115
-6.9531 3.9844 0.7031 0 139 115
-6.7969 3.8281 0.7031 0 139 115
-6.6406 3.9844 0.7031 0 139 115
-6.4844 3.9844 0.7031 0 139 115
-6.3281 4.1406 0.7031 0 139 115
-6.0156 3.8281 0.5469 0 132 122
-6.1719 3.9844 0.5469 0 132 122
-5.8594 3.8281 0.5469 0 132 122
-5.7031 3.9844 0.5469 0 132 122
-6.0156 4.1406 0.5469 0 132 122
-5.8594 4.1406 0.5469 0 132 122
-5.7031 4.2969 0.5469 0 132 122
-5.3906 3.8281 0.3906 0 125 129
-5.5469 3.9844 0.5469 0 132 122
-5.3906 3.9844 0.5469 0 132 122
-5.2344 3.8281 0.3906 0 125 129
-5.0781 3.9844 0.3906 0 125 129
-5.3906 4.1406 0.5469 0 132 122
-5.2344 4.1406 0.5469 0 132 122
-5.0781 4.1406 0.5469 0 132 122
-6.1719 4.2969 0.7031 0 139 115
-6.0156 4.2969 0.7031 0 139 115
-9.9219 1.1719 4.9219 73 181 0
-9.2969 1.0156 4.6094 59 195 0
-9.4531 1.7969 4.6094 59 195 0
-9.9219 1.3281 4.7656 66 188 0
-9.9219 1.3281 4.9219 73 181 0
-9.6094 1.6406 4.7656 66 188 0
-9.6094 1.7969 4.9219 73 181 0
-8.9844 1.4844 4.6094 59 195 0
-8.9844 1.7969 4.6094 59 195 0
-9.4531 1.9531 4.6094 59 195 0
-9.7656 1.9531 4.9219 73 181 0
-9.9219 2.1094 4.9219 73 181 0
-9.6094 1.9531 4.7656 66 188 0
-9.7656 2.4219 4.7656 66 188 0
-9.4531 2.2656 4.7656 66 188 0
-9.6094 2.4219 4.7656 66 188 0
-9.2969 2.2656 4.6094 59 195 0
-8.8281 2.2656 4.7656 66 188 0
-9.7656 2.5781 4.9219 73 181 0
-9.9219 2.7344 4.9219 73 181 0
-9.9219 2.8906 4.9219 73 181 0
-9.4531 2.8906 4.7656 66 188 0
-9.6094 2.8906 4.9219 73 181 0
-9.6094 3.2031 4.9219 73 181 0
-8.8281 3.3594 4.9219 73 181 0
-8.2031 2.8906 4.6094 59 195 0
-8.3594 3.5156 4.6094 59 195 0
-8.6719 3.3594 4.9219 73 181 0
-8.5156 3.5156 4.7656 66 188 0
-7.7344 3.6719 4.4531 52 202 0
-8.9844 3.8281 4.9219 73 181 0
-8.3594 3.8281 4.7656 66 188 0
-8.6719 4.1406 4.7656 66 188 0
-4.9219 2.4219 0.0781 0 111 143
-4.7656 2.4219 0.0781 0 111 143
-4.6094 2.4219 0.0781 0 111 143
-4.4531 2.4219 0.0781 0 111 143
-4.7656 2.5781 0.0781 0 111 143
-4.6094 2.5781 0.0781 0 111 143
-4.4531 2.5781 0.0781 0 111 143
-4.6094 3.0469 0.0781 0 111 143
-4.2969 2.5781 0.0781 0 111 143
-4.2969 2.7344 0.0781 0 111 143
-4.1406 2.7344 0.0781 0 111 143
-3.9844 2.7344 0.0781 0 111 143
-4.2969 2.8906 0.0781 0 111 143
-4.9219 3.3594 0.2344 0 118 136
-4.7656 3.3594 0.2344 0 118 136
-4.6094 3.2031 0.0781 0 111 143
-4.4531 3.2031 0.0781 0 111 143
-4.4531 3.3594 0.0781 0 111 143
-4.6094 3.3594 0.2344 0 118 136
-4.9219 3.5156 0.2344 0 118 136
-4.7656 3.6719 0.2344 0 118 136
-4.6094 3.5156 0.2344 0 118 136
-4.6094 3.6719 0.2344 0 118 136
-4.4531 3.6719 0.2344 0 118 136
-4.2969 3.2031 0.0781 0 111 143
-4.2969 3.3594 0.0781 0 111 143
-4.1406 3.3594 0.0781 0 111 143
-3.9844 3.3594 0.0781 0 111 143
-4.2969 3.5156 0.0781 0 111 143
-4.1406 3.6719 0.2344 0 118 136
-3.9844 3.5156 0.0781 0 111 143
-3.8281 3.5156 0.0781 0 111 143
-3.9844 3.6719 0.0781 0 111 143
-3.8281 3.6719 0.0781 0 111 143
-3.5156 3.5156 0.0781 0 111 143
-3.6719 3.6719 0.0781 0 111 143
-3.3594 3.6719 0.0781 0 111 143
-4.6094 3.8281 0.2344 0 118 136
-4.4531 3.8281 0.2344 0 118 136
-4.4531 3.9844 0.2344 0 118 136
-4.9219 3.8281 0.3906 0 125 129
-4.9219 3.9844 0.3906 0 125 129
-4.7656 3.9844 0.3906 0 125 129
-4.7656 4.1406 0.3906 0 125 129
-4.7656 4.2969 0.3906 0 125 129
-4.6094 4.1406 0.3906 0 125 129
-4.4531 4.1406 0.3906 0 125 129
-4.6094 4.2969 0.3906 0 125 129
-4.2969 3.8281 0.2344 0 118 136
-4.2969 3.9844 0.2344 0 118 136
-3.8281 3.8281 0.0781 0 111 143
-3.9844 3.8281 0.2344 0 118 136
-3.9844 3.9844 0.2344 0 118 136
-4.1406 4.1406 0.2344 0 118 136
-4.1406 4.2969 0.2344 0 118 136
-3.8281 4.1406 0.2344 0 118 136
-3.8281 4.2969 0.2344 0 118 136
-4.2969 4.2969 0.3906 0 125 129
-4.4531 4.4531 0.3906 0 125 129
-3.9844 4.4531 0.2344 0 118 136
-3.9844 4.6094 0.2344 0 118 136
-3.8281 4.6094 0.2344 0 118 136
-3.8281 4.7656 0.2344 0 118 136
-4.2969 4.4531 0.3906 0 125 129
-4.1406 4.4531 0.3906 0 125 129
-4.1406 4.6094 0.3906 0 125 129
-3.9844 4.7656 0.3906 0 125 129
-3.8281 4.9219 0.3906 0 125 129
-3.6719 3.8281 0.0781 0 111 143
-3.5156 3.8281 0.0781 0 111 143
-3.5156 3.9844 0.0781 0 111 143
-3.3594 3.8281 0.0781 0 111 143
-3.2031 3.8281 0.0781 0 111 143
-3.2031 3.9844 0.0781 0 111 143
-3.6719 4.1406 0.2344 0 118 136
-3.5156 4.2969 0.2344 0 118 136
-3.3594 4.1406 0.0781 0 111 143
-3.3594 4.2969 0.0781 0 111 143
-3.0469 3.8281 0.0781 0 111 143
-2.8906 3.9844 0.0781 0 111 143
-3.0469 4.1406 0.0781 0 111 143
-2.8906 4.1406 0.0781 0 111 143
-3.0469 4.2969 0.0781 0 111 143
-2.7344 4.2969 0.0781 0 111 143
-3.6719 4.4531 0.2344 0 118 136
-3.6719 4.6094 0.2344 0 118 136
-3.5156 4.6094 0.2344 0 118 136
-3.2031 4.4531 0.0781 0 111 143
-3.3594 4.4531 0.2344 0 118 136
-3.3594 4.6094 0.2344 0 118 136
-3.2031 4.6094 0.2344 0 118 136
-3.5156 4.7656 0.2344 0 118 136
-3.5156 4.9219 0.2344 0 118 136
-3.3594 4.7656 0.2344 0 118 136
-3.2031 4.7656 0.2344 0 118 136
-3.2031 4.9219 0.2344 0 118 136
-2.8906 4.4531 0.0781 0 111 143
-2.8906 4.6094 0.0781 0 111 143
-3.0469 4.6094 0.2344 0 118 136
-2.5781 4.4531 0.0781 0 111 143
-2.5781 4.6094 0.0781 0 111 143
-3.0469 4.9219 0.2344 0 118 136
-2.8906 4.9219 0.2344 0 118 136
-2.5781 4.7656 0.0781 0 111 143
-2.7344 4.9219 0.2344 0 118 136
-2.4219 4.7656 0.0781 0 111 143
-2.2656 4.7656 0.0781 0 111 143
-2.4219 4.9219 0.0781 0 111 143
-2.2656 4.9219 0.0781 0 111 143
-2.1094 4.9219 0.0781 0 111 143
-9.7656 5.0781 1.4844 0 174 80
-9.9219 5.0781 1.6406 0 181 73
-9.4531 5.0781 1.6406 0 181 73
-9.2969 5.0781 1.6406 0 181 73
-8.9844 5.0781 1.6406 0 181 73
-8.8281 5.0781 1.6406 0 181 73
-9.7656 5.7031 1.6406 0 181 73
-9.4531 5.7031 1.6406 0 181 73
-9.2969 5.7031 1.4844 0 174 80
-8.9844 5.7031 1.4844 0 174 80
-8.5156 5.2344 1.4844 0 174 80
-8.5156 5.3906 1.4844 0 174 80
-8.3594 5.3906 1.4844 0 174 80
-8.2031 5.5469 1.4844 0 174 80
-8.6719 5.0781 1.6406 0 181 73
-8.6719 5.7031 1.4844 0 174 80
-8.3594 5.7031 1.4844 0 174 80
-8.2031 5.7031 1.4844 0 174 80
-8.0469 5.7031 1.3281 0 167 87
-7.8906 5.7031 1.3281 0 167 87
-8.0469 5.7031 1.4844 0 174 80
-7.7344 5.7031 1.3281 0 167 87
-7.5781 5.8594 1.3281 0 167 87
-7.4219 5.8594 1.3281 0 167 87
-7.2656 5.8594 1.3281 0 167 87
-7.2656 6.0156 1.3281 0 167 87
-7.1094 6.0156 1.3281 0 167 87
-6.9531 6.0156 1.3281 0 167 87
-6.7969 6.1719 1.3281 0 167 87
-6.6406 6.1719 1.3281 0 167 87
-6.4844 6.3281 1.3281 0 167 87
-3.3594 5.0781 0.2344 0 118 136
-3.0469 5.0781 0.2344 0 118 136
-2.8906 5.0781 0.2344 0 118 136
-2.8906 5.2344 0.2344 0 118 136
-2.5781 5.0781 0.2344 0 118 136
-2.5781 5.2344 0.2344 0 118 136
-2.4219 5.0781 0.0781 0 111 143
-2.2656 5.2344 0.2344 0 118 136
-2.1094 5.0781 0.0781 0 111 143
-2.1094 5.2344 0.0781 0 111 143
-2.2656 5.3906 0.2344 0 118 136
-1.9531 5.3906 0.0781 0 111 143
-1.9531 5.5469 0.0781 0 111 143
-2.1094 5.3906 0.2344 0 118 136
-17.5781 1.3281 5.0781 80 174 0
-17.5781 1.7969 5.0781 80 174 0
-16.1719 1.1719 5.0781 80 174 0
-16.9531 0.2344 7.4219 185 69 0
-16.4844 0.2344 7.4219 185 69 0
-15.0781 0.0781 6.4844 143 111 0
-15.0781 0.8594 6.7969 157 97 0
-15.7031 0.3906 7.1094 171 83 0
-16.1719 0.0781 7.2656 178 76 0
-16.1719 0.2344 7.2656 178 76 0
-16.0156 0.3906 7.2656 178 76 0
-15.2344 0.0781 6.9531 164 90 0
-15.0781 0.0781 6.9531 164 90 0
-15.0781 0.2344 6.9531 164 90 0
-15.2344 0.2344 7.1094 171 83 0
-15.3906 0.3906 7.1094 171 83 0
-15.2344 0.5469 6.9531 164 90 0
-15.2344 0.5469 7.1094 171 83 0
-15.3906 0.5469 7.2656 178 76 0
-15.7031 0.7031 7.1094 171 83 0
-15.7031 1.0156 7.2656 178 76 0
-15.5469 0.7031 7.1094 171 83 0
-15.0781 0.8594 6.9531 164 90 0
-15.3906 1.1719 7.1094 171 83 0
-15.2344 1.0156 6.9531 164 90 0
-15.5469 0.7031 7.2656 178 76 0
-15.3906 1.7969 7.1094 171 83 0
-15.5469 1.3281 7.2656 178 76 0
-15.5469 1.4844 7.2656 178 76 0
-15.0781 2.2656 6.9531 164 90 0
-16.3281 3.0469 5.2344 87 167 0
-17.1094 3.6719 5.5469 101 153 0
-16.3281 3.2031 5.2344 87 167 0
-16.3281 3.5156 5.3906 94 160 0
-16.1719 2.7344 5.0781 80 174 0
-16.1719 2.7344 5.2344 87 167 0
-15.8594 2.5781 5.0781 80 174 0
-16.1719 2.8906 5.2344 87 167 0
-16.1719 3.0469 5.2344 87 167 0
-16.1719 3.0469 5.3906 94 160 0
-16.1719 3.2031 5.2344 87 167 0
-16.1719 3.3594 5.2344 87 167 0
-15.7031 3.2031 5.2344 87 167 0
-16.1719 3.5156 5.3906 94 160 0
-16.0156 3.6719 5.3906 94 160 0
-16.9531 4.1406 5.7031 108 146 0
-17.8906 1.0156 7.8906 206 48 0
-16.9531 0.3906 7.5781 192 62 0
-16.7969 0.0781 7.7344 199 55 0
-17.2656 3.2031 8.8281 248 6 0
-14.7656 0.2344 6.1719 129 125 0
-14.6094 0.0781 6.1719 129 125 0
-14.7656 0.3906 6.1719 129 125 0
-14.6094 0.5469 6.1719 129 125 0
-13.9844 0.2344 6.1719 129 125 0
-13.9844 0.3906 6.1719 129 125 0
-13.9844 0.5469 6.1719 129 125 0
-14.7656 0.8594 6.1719 129 125 0
-14.4531 0.8594 6.1719 129 125 0
-14.6094 1.1719 6.1719 129 125 0
-13.8281 0.7031 6.0156 122 132 0
-13.9844 0.7031 6.1719 129 125 0
-13.9844 1.0156 6.0156 122 132 0
-13.9844 1.0156 6.1719 129 125 0
-13.3594 0.3906 5.7031 108 146 0
-13.5156 0.2344 6.1719 129 125 0
-13.5156 0.3906 6.1719 129 125 0
-13.3594 0.5469 6.1719 129 125 0
-13.5156 0.8594 6.1719 129 125 0
-13.3594 0.7031 6.1719 129 125 0
-13.3594 0.8594 6.1719 129 125 0
-13.2031 0.8594 6.1719 129 125 0
-13.6719 1.1719 6.0156 122 132 0
-13.5156 1.0156 6.1719 129 125 0
-13.3594 1.0156 6.0156 122 132 0
-13.3594 1.1719 6.0156 122 132 0
-13.3594 1.1719 6.1719 129 125 0
-13.2031 1.1719 6.1719 129 125 0
-13.0469 1.0156 6.1719 129 125 0
-12.8906 1.0156 6.1719 129 125 0
-12.8906 1.1719 6.1719 129 125 0
-13.8281 1.4844 6.0156 122 132 0
-13.3594 1.6406 5.8594 115 139 0
-13.3594 1.7969 5.8594 115 139 0
-13.5156 1.3281 6.1719 129 125 0
-13.5156 1.4844 6.1719 129 125 0
-13.3594 1.3281 6.0156 122 132 0
-13.2031 1.3281 6.0156 122 132 0
-13.2031 1.4844 6.0156 122 132 0
-13.3594 1.6406 6.0156 122 132 0
-12.7344 1.3281 5.7031 108 146 0
-12.8906 1.6406 5.8594 115 139 0
-13.0469 1.7969 5.8594 115 139 0
-12.7344 1.6406 5.7031 108 146 0
-13.0469 1.4844 6.0156 122 132 0
-13.0469 1.3281 6.1719 129 125 0
-13.0469 1.6406 6.0156 122 132 0
-12.8906 1.6406 6.0156 122 132 0
-13.0469 1.7969 6.0156 122 132 0
-12.8906 1.7969 6.0156 122 132 0
-13.3594 2.1094 6.0156 122 132 0
-13.3594 2.2656 6.0156 122 132 0
-12.8906 1.9531 5.8594 115 139 0
-12.8906 2.2656 5.8594 115 139 0
-12.7344 2.2656 5.8594 115 139 0
-12.7344 2.4219 5.8594 115 139 0
-12.8906 1.9531 6.0156 122 132 0
-12.7344 1.9531 6.0156 122 132 0
-12.7344 2.1094 6.0156 122 132 0
-14.7656 0.2344 6.3281 136 118 0
-14.9219 0.0781 6.4844 143 111 0
-14.7656 0.3906 6.3281 136 118 0
-14.7656 0.5469 6.3281 136 118 0
-14.9219 0.3906 6.4844 143 111 0
-14.1406 0.0781 6.3281 136 118 0
-14.2969 0.0781 6.4844 143 111 0
-14.1406 0.2344 6.4844 143 111 0
-14.1406 0.3906 6.3281 136 118 0
-14.1406 0.5469 6.3281 136 118 0
-14.9219 0.7031 6.3281 136 118 0
-14.7656 0.8594 6.3281 136 118 0
-14.9219 0.7031 6.4844 143 111 0
-14.7656 1.0156 6.3281 136 118 0
-14.1406 0.7031 6.3281 136 118 0
-13.9844 0.8594 6.3281 136 118 0
-13.9844 1.0156 6.3281 136 118 0
-14.9219 0.7031 6.9531 164 90 0
-13.5156 0.3906 6.3281 136 118 0
-12.5781 0.8594 6.4844 143 111 0
-12.7344 1.0156 6.6406 150 104 0
-14.9219 1.3281 6.3281 136 118 0
-14.7656 1.3281 6.3281 136 118 0
-13.3594 1.4844 6.9531 164 90 0
-13.2031 1.6406 6.9531 164 90 0
-11.3281 0.3906 5.3906 94 160 0
-11.4844 0.5469 5.5469 101 153 0
-11.3281 0.7031 5.3906 94 160 0
-11.3281 0.7031 5.5469 101 153 0
-11.4844 0.8594 5.5469 101 153 0
-11.3281 0.8594 5.5469 101 153 0
-11.9531 0.5469 5.8594 115 139 0
-11.9531 0.5469 6.1719 129 125 0
-11.6406 0.0781 5.8594 115 139 0
-11.6406 0.2344 5.8594 115 139 0
-11.4844 0.0781 5.8594 115 139 0
-11.3281 0.0781 5.8594 115 139 0
-11.4844 0.2344 5.8594 115 139 0
-11.3281 0.2344 5.8594 115 139 0
-11.6406 0.3906 5.7031 108 146 0
-11.6406 0.3906 5.8594 115 139 0
-11.4844 0.3906 5.8594 115 139 0
-11.3281 0.3906 5.8594 115 139 0
-11.3281 0.5469 5.8594 115 139 0
-11.7969 0.0781 6.0156 122 132 0
-11.6406 0.0781 6.0156 122 132 0
-11.7969 0.2344 6.0156 122 132 0
-11.4844 0.2344 6.0156 122 132 0
-11.7969 0.3906 6.0156 122 132 0
-11.6406 0.3906 6.0156 122 132 0
-11.6406 0.5469 6.0156 122 132 0
-11.4844 0.5469 6.0156 122 132 0
-11.7969 1.0156 5.8594 115 139 0
-11.3281 1.0156 5.8594 115 139 0
-11.6406 0.7031 6.0156 122 132 0
-11.6406 0.8594 6.1719 129 125 0
-11.4844 0.7031 6.0156 122 132 0
-11.3281 0.7031 6.0156 122 132 0
-11.4844 0.8594 6.0156 122 132 0
-11.6406 1.0156 6.0156 122 132 0
-11.7969 1.0156 6.1719 129 125 0
-11.6406 1.0156 6.1719 129 125 0
-11.4844 1.0156 6.0156 122 132 0
-11.3281 1.0156 6.0156 122 132 0
-10.8594 0.0781 5.0781 80 174 0
-10.8594 0.0781 5.2344 87 167 0
-10.7031 0.2344 5.2344 87 167 0
-11.0156 0.3906 5.2344 87 167 0
-10.8594 0.5469 5.3906 94 160 0
-10.8594 0.7031 5.2344 87 167 0
-10.7031 0.7031 5.2344 87 167 0
-10.7031 1.1719 5.2344 87 167 0
-11.0156 0.8594 5.3906 94 160 0
-11.1719 0.7031 5.5469 101 153 0
-11.0156 1.1719 5.3906 94 160 0
-11.1719 1.0156 5.5469 101 153 0
-10.8594 1.1719 5.3906 94 160 0
-10.7031 1.1719 5.3906 94 160 0
-10.3906 0.7031 5.0781 80 174 0
-10.5469 1.0156 5.2344 87 167 0
-10.5469 1.1719 5.2344 87 167 0
-10.3906 1.1719 5.2344 87 167 0
-10.5469 1.0156 5.3906 94 160 0
-11.1719 0.0781 5.8594 115 139 0
-11.0156 0.5469 5.8594 115 139 0
-10.7031 0.3906 5.7031 108 146 0
-10.8594 0.5469 5.7031 108 146 0
-11.1719 0.7031 5.7031 108 146 0
-11.0156 1.1719 5.7031 108 146 0
-11.0156 1.0156 5.8594 115 139 0
-11.0156 1.1719 5.8594 115 139 0
-10.8594 1.0156 5.7031 108 146 0
-10.7031 1.0156 5.7031 108 146 0
-10.7031 1.1719 5.7031 108 146 0
-10.8594 1.0156 5.8594 115 139 0
-10.7031 1.0156 5.8594 115 139 0
-12.1094 1.3281 5.3906 94 160 0
-11.3281 1.3281 5.5469 101 153 0
-11.3281 1.4844 5.8594 115 139 0
-11.4844 1.6406 5.8594 115 139 0
-11.4844 1.7969 5.8594 115 139 0
-11.3281 1.4844 6.0156 122 132 0
-11.3281 1.4844 6.1719 129 125 0
-11.6406 1.7969 6.1719 129 125 0
