ply
format ascii 1.0
comment OctoMap 3D export - Moose Robot
comment Resolution: 0.100 m
element vertex 1458
property float x
property float y
property float z
property uchar red
property uchar green
property uchar blue
end_header
-4.1406 -1.4844 -2.8906 0 102 153
-4.2969 -1.3281 -2.8906 0 102 153
-4.1406 -1.3281 -2.8906 0 102 153
-3.9844 -1.4844 -2.8906 0 102 153
-3.8281 -1.4844 -2.8906 0 102 153
-3.8281 -1.6406 -2.7344 0 109 145
-3.8281 -1.4844 -2.7344 0 109 145
-3.9844 -1.3281 -2.7344 0 109 145
-3.8281 -1.3281 -2.7344 0 109 145
-3.6719 -2.4219 -2.7344 0 109 145
-3.5156 -2.4219 -2.7344 0 109 145
-3.6719 -2.2656 -2.7344 0 109 145
-3.5156 -2.2656 -2.7344 0 109 145
-3.3594 -2.4219 -2.7344 0 109 145
-3.2031 -2.4219 -2.7344 0 109 145
-3.2031 -2.2656 -2.7344 0 109 145
-3.2031 -2.4219 -2.5781 0 117 137
-3.2031 -2.2656 -2.5781 0 117 137
-3.6719 -2.1094 -2.7344 0 109 145
-3.5156 -2.1094 -2.7344 0 109 145
-3.6719 -1.9531 -2.7344 0 109 145
-3.5156 -1.9531 -2.7344 0 109 145
-3.3594 -2.1094 -2.7344 0 109 145
-3.3594 -1.9531 -2.7344 0 109 145
-3.2031 -1.9531 -2.7344 0 109 145
-3.2031 -2.1094 -2.5781 0 117 137
-3.0469 -2.4219 -2.7344 0 109 145
-3.0469 -2.4219 -2.5781 0 117 137
-2.8906 -2.4219 -2.5781 0 117 137
-3.0469 -2.2656 -2.5781 0 117 137
-3.0469 -2.1094 -2.5781 0 117 137
-3.0469 -1.9531 -2.5781 0 117 137
-3.6719 -1.7969 -2.7344 0 109 145
-3.5156 -1.7969 -2.7344 0 109 145
-3.6719 -1.6406 -2.7344 0 109 145
-3.5156 -1.6406 -2.7344 0 109 145
-3.3594 -1.7969 -2.7344 0 109 145
-3.3594 -1.6406 -2.7344 0 109 145
-3.2031 -1.6406 -2.7344 0 109 145
-3.2031 -1.7969 -2.5781 0 117 137
-3.6719 -1.4844 -2.7344 0 109 145
-3.5156 -1.4844 -2.7344 0 109 145
-3.6719 -1.3281 -2.7344 0 109 145
-3.5156 -1.3281 -2.7344 0 109 145
-3.3594 -1.4844 -2.7344 0 109 145
-3.2031 -1.4844 -2.5781 0 117 137
-3.2031 -1.3281 -2.5781 0 117 137
-3.0469 -1.7969 -2.5781 0 117 137
-3.0469 -1.6406 -2.5781 0 117 137
-3.0469 -1.4844 -2.5781 0 117 137
-3.0469 -1.3281 -2.5781 0 117 137
-4.4531 -1.1719 -2.8906 0 102 153
-4.6094 -1.0156 -2.8906 0 102 153
-4.4531 -1.0156 -2.8906 0 102 153
-4.6094 -0.8594 -2.8906 0 102 153
-4.4531 -0.8594 -2.8906 0 102 153
-4.6094 -0.7031 -2.8906 0 102 153
-4.4531 -0.7031 -2.8906 0 102 153
-4.4531 -1.0156 -2.7344 0 109 145
-4.4531 -0.8594 -2.7344 0 109 145
-4.2969 -1.1719 -2.8906 0 102 153
-4.1406 -1.1719 -2.8906 0 102 153
-4.2969 -1.0156 -2.8906 0 102 153
-4.1406 -1.0156 -2.8906 0 102 153
-3.9844 -1.0156 -2.8906 0 102 153
-4.2969 -0.8594 -2.8906 0 102 153
-4.1406 -0.8594 -2.8906 0 102 153
-4.2969 -0.7031 -2.8906 0 102 153
-3.9844 -1.1719 -2.7344 0 109 145
-3.8281 -1.1719 -2.7344 0 109 145
-3.9844 -1.0156 -2.7344 0 109 145
-3.8281 -1.0156 -2.7344 0 109 145
-4.1406 -0.8594 -2.7344 0 109 145
-4.1406 -0.7031 -2.7344 0 109 145
-3.9844 -0.8594 -2.7344 0 109 145
-3.8281 -0.7031 -2.7344 0 109 145
-4.7656 -0.5469 -2.8906 0 102 153
-4.7656 -0.3906 -2.8906 0 102 153
-4.6094 -0.5469 -2.8906 0 102 153
-4.4531 -0.5469 -2.8906 0 102 153
-4.6094 -0.3906 -2.8906 0 102 153
-4.4531 -0.3906 -2.8906 0 102 153
-4.7656 -0.2344 -2.8906 0 102 153
-4.7656 -0.0781 -2.8906 0 102 153
-4.6094 -0.2344 -2.8906 0 102 153
-4.6094 -0.0781 -2.8906 0 102 153
-4.1406 -0.5469 -2.8906 0 102 153
-4.2969 -0.2344 -2.8906 0 102 153
-4.2969 -0.5469 -2.7344 0 109 145
-4.1406 -0.5469 -2.7344 0 109 145
-4.2969 -0.3906 -2.7344 0 109 145
-4.1406 -0.3906 -2.7344 0 109 145
-3.9844 -0.5469 -2.7344 0 109 145
-3.8281 -0.5469 -2.7344 0 109 145
-3.9844 -0.3906 -2.7344 0 109 145
-4.2969 -0.2344 -2.7344 0 109 145
-4.1406 -0.2344 -2.7344 0 109 145
-4.2969 -0.0781 -2.7344 0 109 145
-4.1406 -0.0781 -2.7344 0 109 145
-3.9844 -0.2344 -2.7344 0 109 145
-3.8281 -0.2344 -2.7344 0 109 145
-3.9844 -0.0781 -2.7344 0 109 145
-3.6719 -1.1719 -2.7344 0 109 145
-3.5156 -1.0156 -2.7344 0 109 145
-3.5156 -1.0156 -2.5781 0 117 137
-3.3594 -1.1719 -2.7344 0 109 145
-3.3594 -1.1719 -2.5781 0 117 137
-3.2031 -1.0156 -2.5781 0 117 137
-3.6719 -0.8594 -2.7344 0 109 145
-3.6719 -0.7031 -2.7344 0 109 145
-3.3594 -0.8594 -2.5781 0 117 137
-3.2031 -0.8594 -2.5781 0 117 137
-3.3594 -0.7031 -2.5781 0 117 137
-3.2031 -0.7031 -2.5781 0 117 137
-3.0469 -1.1719 -2.5781 0 117 137
-3.6719 -0.3906 -2.7344 0 109 145
-3.5156 -0.5469 -2.5781 0 117 137
-3.6719 -0.3906 -2.5781 0 117 137
-3.3594 -0.5469 -2.5781 0 117 137
-3.2031 -0.5469 -2.5781 0 117 137
-3.3594 -0.3906 -2.5781 0 117 137
-3.6719 -0.2344 -2.7344 0 109 145
-3.6719 -0.0781 -2.5781 0 117 137
-3.5156 -0.0781 -2.5781 0 117 137
-3.3594 -0.2344 -2.5781 0 117 137
-3.3594 -0.0781 -2.5781 0 117 137
-2.5781 -4.2969 -2.4219 0 125 129
-2.7344 -4.1406 -2.4219 0 125 129
-2.5781 -4.1406 -2.4219 0 125 129
-2.8906 -3.9844 -2.4219 0 125 129
-2.8906 -3.8281 -2.4219 0 125 129
-2.7344 -3.9844 -2.4219 0 125 129
-2.5781 -3.9844 -2.4219 0 125 129
-2.7344 -3.8281 -2.4219 0 125 129
-2.5781 -3.8281 -2.4219 0 125 129
-2.8906 -3.6719 -2.4219 0 125 129
-2.5781 -3.6719 -2.4219 0 125 129
-2.7344 -3.5156 -2.4219 0 125 129
-2.5781 -3.5156 -2.4219 0 125 129
-2.7344 -3.2031 -2.4219 0 125 129
-2.5781 -3.2031 -2.4219 0 125 129
-2.7344 -3.0469 -2.4219 0 125 129
-2.2656 -4.4531 -2.4219 0 125 129
-2.2656 -4.4531 -2.2656 0 133 121
-2.1094 -4.6094 -2.4219 0 125 129
-2.1094 -4.4531 -2.4219 0 125 129
-1.9531 -4.6094 -2.2656 0 133 121
-2.1094 -4.4531 -2.2656 0 133 121
-1.9531 -4.4531 -2.2656 0 133 121
-1.7969 -4.7656 -2.2656 0 133 121
-1.6406 -4.7656 -2.2656 0 133 121
-1.7969 -4.6094 -2.2656 0 133 121
-1.6406 -4.6094 -2.2656 0 133 121
-1.6406 -4.4531 -2.2656 0 133 121
-1.4844 -4.6094 -2.2656 0 133 121
-1.4844 -4.4531 -2.2656 0 133 121
-1.6406 -4.7656 -2.1094 0 141 113
-1.4844 -4.9219 -2.1094 0 141 113
-1.3281 -4.9219 -2.1094 0 141 113
-1.4844 -4.7656 -2.1094 0 141 113
-1.3281 -4.7656 -2.1094 0 141 113
-1.6406 -4.6094 -2.1094 0 141 113
-1.3281 -4.6094 -2.1094 0 141 113
-1.3281 -4.4531 -2.1094 0 141 113
-2.4219 -4.2969 -2.4219 0 125 129
-2.2656 -4.2969 -2.4219 0 125 129
-2.4219 -4.1406 -2.4219 0 125 129
-2.2656 -4.1406 -2.4219 0 125 129
-2.2656 -4.2969 -2.2656 0 133 121
-2.1094 -4.2969 -2.4219 0 125 129
-2.1094 -4.1406 -2.4219 0 125 129
-1.9531 -4.1406 -2.4219 0 125 129
-1.9531 -4.2969 -2.2656 0 133 121
-2.4219 -3.9844 -2.4219 0 125 129
-2.2656 -3.9844 -2.4219 0 125 129
-2.4219 -3.8281 -2.4219 0 125 129
-2.2656 -3.8281 -2.4219 0 125 129
-2.1094 -3.9844 -2.4219 0 125 129
-1.9531 -3.9844 -2.4219 0 125 129
-2.1094 -3.8281 -2.4219 0 125 129
-1.9531 -3.8281 -2.4219 0 125 129
-2.1094 -3.9844 -2.2656 0 133 121
-1.9531 -3.9844 -2.2656 0 133 121
-1.9531 -3.8281 -2.2656 0 133 121
-1.7969 -4.2969 -2.2656 0 133 121
-1.6406 -4.2969 -2.2656 0 133 121
-1.7969 -4.1406 -2.2656 0 133 121
-1.6406 -4.1406 -2.2656 0 133 121
-1.4844 -4.1406 -2.2656 0 133 121
-1.7969 -3.9844 -2.4219 0 125 129
-1.7969 -3.9844 -2.2656 0 133 121
-1.6406 -3.9844 -2.2656 0 133 121
-1.7969 -3.8281 -2.2656 0 133 121
-1.4844 -3.9844 -2.2656 0 133 121
-1.3281 -4.2969 -2.1094 0 141 113
-1.4844 -4.1406 -2.1094 0 141 113
-1.3281 -4.1406 -2.1094 0 141 113
-1.4844 -3.9844 -2.1094 0 141 113
-1.3281 -3.9844 -2.1094 0 141 113
-1.1719 -4.9219 -2.1094 0 141 113
-1.0156 -4.9219 -2.1094 0 141 113
-1.1719 -4.7656 -2.1094 0 141 113
-1.0156 -4.7656 -2.1094 0 141 113
-1.1719 -4.9219 -1.9531 0 149 105
-1.0156 -4.9219 -1.9531 0 149 105
-1.0156 -4.7656 -1.9531 0 149 105
-0.8594 -4.9219 -1.9531 0 149 105
-0.7031 -4.9219 -1.9531 0 149 105
-0.8594 -4.7656 -1.9531 0 149 105
-0.7031 -4.7656 -1.9531 0 149 105
-1.1719 -4.6094 -2.1094 0 141 113
-1.1719 -4.4531 -2.1094 0 141 113
-1.0156 -4.4531 -2.1094 0 141 113
-0.8594 -4.6094 -1.9531 0 149 105
-0.7031 -4.6094 -1.9531 0 149 105
-0.8594 -4.4531 -1.9531 0 149 105
-0.7031 -4.4531 -1.9531 0 149 105
-0.5469 -4.9219 -1.9531 0 149 105
-0.5469 -4.6094 -1.9531 0 149 105
-0.3906 -4.6094 -1.9531 0 149 105
-1.1719 -4.2969 -2.1094 0 141 113
-1.0156 -4.2969 -2.1094 0 141 113
-1.1719 -4.1406 -2.1094 0 141 113
-1.0156 -4.1406 -2.1094 0 141 113
-0.8594 -4.2969 -1.9531 0 149 105
-0.7031 -4.2969 -1.9531 0 149 105
-1.1719 -3.9844 -2.1094 0 141 113
-0.5469 -4.2969 -1.9531 0 149 105
-0.3906 -4.2969 -1.9531 0 149 105
-0.5469 -4.9219 -1.7969 0 156 98
-0.3906 -4.9219 -1.7969 0 156 98
-0.5469 -4.7656 -1.7969 0 156 98
-0.2344 -4.9219 -1.7969 0 156 98
-0.0781 -4.9219 -1.7969 0 156 98
-0.2344 -4.7656 -1.7969 0 156 98
-0.0781 -4.7656 -1.7969 0 156 98
-0.0781 -4.9219 -1.6406 0 164 90
-0.0781 -4.7656 -1.6406 0 164 90
-0.5469 -4.6094 -1.7969 0 156 98
-0.3906 -4.6094 -1.7969 0 156 98
-0.2344 -4.4531 -1.7969 0 156 98
-0.0781 -4.4531 -1.7969 0 156 98
-0.3906 -4.2969 -1.7969 0 156 98
-0.2344 -4.2969 -1.7969 0 156 98
-2.4219 -3.6719 -2.4219 0 125 129
-2.2656 -3.6719 -2.4219 0 125 129
-2.4219 -3.5156 -2.4219 0 125 129
-2.2656 -3.5156 -2.4219 0 125 129
-2.1094 -3.6719 -2.4219 0 125 129
-1.9531 -3.6719 -2.4219 0 125 129
-2.1094 -3.5156 -2.4219 0 125 129
-1.9531 -3.6719 -2.2656 0 133 121
-2.4219 -3.3594 -2.4219 0 125 129
-2.2656 -3.3594 -2.4219 0 125 129
-2.4219 -3.2031 -2.4219 0 125 129
-1.7969 -3.6719 -2.2656 0 133 121
-2.4219 -3.0469 -2.4219 0 125 129
-2.8906 -1.0156 -2.4219 0 125 129
-3.0469 -0.7031 -2.4219 0 125 129
-2.8906 -0.7031 -2.4219 0 125 129
-2.7344 -0.8594 -2.4219 0 125 129
-2.5781 -0.7031 -2.2656 0 133 121
-3.2031 -0.5469 -2.4219 0 125 129
-3.2031 -0.3906 -2.4219 0 125 129
-3.3594 -0.2344 -2.4219 0 125 129
-2.8906 -0.5469 -2.4219 0 125 129
-2.8906 -0.3906 -2.4219 0 125 129
-2.7344 -0.3906 -2.2656 0 133 121
-2.5781 -0.3906 -2.2656 0 133 121
-3.0469 -0.2344 -2.4219 0 125 129
-3.0469 -0.0781 -2.4219 0 125 129
-2.8906 -0.0781 -2.4219 0 125 129
-2.8906 -0.0781 -2.2656 0 133 121
-2.7344 -0.2344 -2.2656 0 133 121
-2.5781 -0.0781 -2.2656 0 133 121
-2.4219 -0.5469 -2.2656 0 133 121
-2.2656 -0.3906 -2.2656 0 133 121
-2.2656 -0.2344 -2.2656 0 133 121
-2.4219 -0.0781 -2.2656 0 133 121
-2.2656 -0.3906 -2.1094 0 141 113
-2.1094 -0.5469 -2.1094 0 141 113
-1.9531 -0.5469 -2.1094 0 141 113
-1.9531 -0.3906 -2.1094 0 141 113
-2.2656 -0.2344 -2.1094 0 141 113
-2.4219 -0.0781 -2.1094 0 141 113
-2.2656 -0.0781 -2.1094 0 141 113
-2.1094 -0.2344 -2.1094 0 141 113
-1.9531 -0.2344 -2.1094 0 141 113
-2.1094 -0.0781 -2.1094 0 141 113
-1.7969 -0.5469 -1.9531 0 149 105
-1.6406 -0.5469 -1.9531 0 149 105
-1.7969 -0.3906 -1.9531 0 149 105
-1.6406 -0.3906 -1.9531 0 149 105
-1.7969 -0.2344 -1.9531 0 149 105
-1.6406 -0.2344 -1.9531 0 149 105
-1.7969 -0.0781 -1.9531 0 149 105
-1.6406 -0.0781 -1.9531 0 149 105
-0.8594 -0.7031 -0.7031 0 211 43
-1.0156 -0.3906 -0.7031 0 211 43
-1.1719 -0.2344 -0.8594 0 204 50
-1.0156 -0.2344 -0.7031 0 211 43
-0.7031 -0.5469 -0.5469 0 219 35
-0.7031 -0.3906 -0.5469 0 219 35
1.3281 -15.0781 -1.6406 0 164 90
1.3281 -15.0781 -1.4844 0 172 82
1.6406 -15.0781 -1.4844 0 172 82
1.9531 -15.0781 -1.3281 0 180 74
2.1094 -15.0781 -1.3281 0 180 74
2.8906 -15.2344 -1.1719 0 188 66
3.0469 -15.0781 -1.1719 0 188 66
3.2031 -15.2344 -1.0156 0 196 58
1.4844 -14.9219 -1.4844 0 172 82
1.6406 -14.9219 -1.3281 0 180 74
1.7969 -14.9219 -1.3281 0 180 74
0.3906 -16.9531 1.0156 43 211 0
0.0781 -16.7969 1.0156 43 211 0
0.0781 -16.6406 1.0156 43 211 0
0.2344 -16.6406 1.0156 43 211 0
0.5469 -16.7969 1.1719 50 204 0
1.3281 -17.1094 1.1719 50 204 0
1.4844 -16.9531 1.3281 58 196 0
1.6406 -16.7969 1.3281 58 196 0
2.4219 -15.7031 1.6406 74 180 0
0.0781 -17.2656 3.9844 192 62 0
0.2344 -16.9531 3.9844 192 62 0
0.3906 -16.9531 4.1406 200 54 0
0.5469 -16.9531 4.1406 200 54 0
1.0156 -16.1719 4.1406 200 54 0
0.0781 -13.5156 0.8594 35 219 0
0.2344 -13.5156 0.8594 35 219 0
0.2344 -13.3594 0.8594 35 219 0
0.3906 -13.3594 0.8594 35 219 0
0.5469 -13.2031 0.8594 35 219 0
0.5469 -13.6719 1.0156 43 211 0
0.3906 -13.3594 1.0156 43 211 0
0.5469 -13.3594 1.0156 43 211 0
0.7031 -13.5156 1.0156 43 211 0
0.8594 -13.5156 1.0156 43 211 0
0.7031 -13.2031 1.0156 43 211 0
1.0156 -13.3594 1.0156 43 211 0
1.1719 -13.3594 1.1719 50 204 0
0.8594 -13.0469 1.0156 43 211 0
1.0156 -12.8906 1.0156 43 211 0
1.1719 -12.8906 1.0156 43 211 0
1.0156 -13.0469 1.1719 50 204 0
1.1719 -12.8906 1.1719 50 204 0
1.4844 -13.6719 1.1719 50 204 0
1.6406 -13.6719 1.1719 50 204 0
1.7969 -13.5156 1.1719 50 204 0
1.3281 -13.2031 1.1719 50 204 0
1.4844 -13.2031 1.1719 50 204 0
1.6406 -13.0469 1.1719 50 204 0
1.4844 -12.7344 1.1719 50 204 0
1.4844 -13.8281 1.3281 58 196 0
2.4219 -14.1406 1.4844 66 188 0
1.9531 -13.3594 1.3281 58 196 0
2.1094 -13.3594 1.3281 58 196 0
1.9531 -13.2031 1.3281 58 196 0
2.1094 -13.2031 1.3281 58 196 0
2.1094 -13.2031 1.4844 66 188 0
2.4219 -13.3594 1.4844 66 188 0
2.4219 -13.2031 1.4844 66 188 0
1.6406 -13.0469 1.3281 58 196 0
1.7969 -12.8906 1.3281 58 196 0
2.5781 -14.1406 1.4844 66 188 0
2.7344 -13.9844 1.4844 66 188 0
3.2031 -13.5156 1.6406 74 180 0
3.2031 -13.2031 1.6406 74 180 0
3.3594 -13.2031 1.6406 74 180 0
2.7344 -13.0469 1.4844 66 188 0
2.8906 -12.8906 1.4844 66 188 0
2.5781 -13.0469 1.6406 74 180 0
2.7344 -13.0469 1.6406 74 180 0
2.8906 -12.8906 1.6406 74 180 0
3.0469 -12.7344 1.6406 74 180 0
3.5156 -13.0469 1.7969 82 172 0
3.6719 -12.8906 1.7969 82 172 0
3.2031 -12.5781 1.6406 74 180 0
3.8281 -12.7344 1.7969 82 172 0
3.9844 -12.5781 1.7969 82 172 0
3.9844 -12.4219 1.7969 82 172 0
4.1406 -12.4219 1.9531 90 164 0
4.2969 -12.2656 1.9531 90 164 0
4.4531 -12.1094 1.9531 90 164 0
4.6094 -11.9531 1.9531 90 164 0
0.7031 -14.9219 3.6719 176 78 0
0.0781 -13.5156 3.3594 160 94 0
0.2344 -13.5156 3.3594 160 94 0
0.3906 -13.5156 3.3594 160 94 0
0.0781 -13.2031 3.2031 153 101 0
0.0781 -13.2031 3.3594 160 94 0
0.2344 -13.2031 3.3594 160 94 0
0.5469 -13.5156 3.5156 168 86 0
0.3906 -13.2031 3.5156 168 86 0
1.0156 -13.5156 3.5156 168 86 0
1.1719 -13.5156 3.5156 168 86 0
0.7031 -13.2031 3.5156 168 86 0
0.8594 -13.2031 3.5156 168 86 0
1.1719 -13.3594 3.6719 176 78 0
1.0156 -13.2031 3.6719 176 78 0
1.1719 -13.2031 3.6719 176 78 0
0.3906 -12.8906 3.2031 153 101 0
0.5469 -12.8906 3.3594 160 94 0
0.5469 -12.7344 3.3594 160 94 0
1.0156 -12.8906 3.5156 168 86 0
0.7031 -12.7344 3.5156 168 86 0
1.3281 -13.5156 3.5156 168 86 0
1.4844 -13.5156 3.6719 176 78 0
1.6406 -13.5156 3.6719 176 78 0
1.3281 -13.3594 3.6719 176 78 0
1.7969 -13.0469 3.6719 176 78 0
1.9531 -13.0469 3.6719 176 78 0
2.1094 -13.0469 3.6719 176 78 0
1.7969 -13.8281 3.9844 192 62 0
1.4844 -13.6719 3.8281 184 70 0
1.4844 -13.3594 3.8281 184 70 0
1.6406 -13.3594 3.8281 184 70 0
2.2656 -13.2031 3.8281 184 70 0
2.4219 -13.2031 3.8281 184 70 0
2.4219 -12.7344 3.9844 192 62 0
2.7344 -13.8281 4.1406 200 54 0
2.5781 -12.5781 3.8281 184 70 0
3.2031 -12.7344 4.1406 200 54 0
3.3594 -12.7344 4.1406 200 54 0
3.5156 -12.5781 4.1406 200 54 0
3.6719 -12.5781 4.2969 207 47 0
1.7969 -12.4219 3.6719 176 78 0
1.9531 -12.2656 3.6719 176 78 0
2.1094 -12.1094 3.6719 176 78 0
2.2656 -11.9531 3.6719 176 78 0
2.7344 -12.4219 3.8281 184 70 0
2.8906 -12.2656 3.8281 184 70 0
2.8906 -11.9531 3.8281 184 70 0
0.0781 -5.2344 -1.6406 0 164 90
0.2344 -5.0781 -1.6406 0 164 90
0.3906 -5.2344 -1.6406 0 164 90
0.3906 -5.0781 -1.6406 0 164 90
0.5469 -5.2344 -1.4844 0 172 82
0.3906 -5.0781 -1.4844 0 172 82
0.5469 -5.0781 -1.4844 0 172 82
0.8594 -5.2344 -1.4844 0 172 82
0.7031 -5.0781 -1.4844 0 172 82
0.8594 -5.0781 -1.3281 0 180 74
1.0156 -5.2344 -1.3281 0 180 74
1.0156 -5.0781 -1.3281 0 180 74
1.1719 -5.0781 -1.3281 0 180 74
1.3281 -5.0781 -1.3281 0 180 74
1.7969 -5.0781 -1.1719 0 188 66
1.9531 -5.0781 -1.1719 0 188 66
0.0781 -4.9219 -1.6406 0 164 90
0.2344 -4.9219 -1.6406 0 164 90
0.0781 -4.7656 -1.6406 0 164 90
0.2344 -4.7656 -1.6406 0 164 90
0.3906 -4.9219 -1.6406 0 164 90
0.5469 -4.9219 -1.6406 0 164 90
0.3906 -4.7656 -1.6406 0 164 90
0.0781 -4.4531 -1.7969 0 156 98
0.3906 -4.9219 -1.4844 0 172 82
0.5469 -4.9219 -1.4844 0 172 82
0.5469 -4.7656 -1.4844 0 172 82
0.7031 -4.9219 -1.4844 0 172 82
0.8594 -4.7656 -1.4844 0 172 82
0.8594 -4.9219 -1.3281 0 180 74
1.0156 -4.7656 -1.3281 0 180 74
1.1719 -4.7656 -1.3281 0 180 74
1.3281 -4.9219 -1.3281 0 180 74
1.3281 -4.9219 -1.1719 0 188 66
1.4844 -4.9219 -1.1719 0 188 66
1.6406 -4.9219 -1.1719 0 188 66
1.9531 -4.9219 -1.1719 0 188 66
1.9531 -4.9219 -1.0156 0 196 58
2.1094 -4.9219 -1.0156 0 196 58
2.2656 -4.9219 -1.0156 0 196 58
2.4219 -4.7656 -1.0156 0 196 58
4.7656 -15.3906 5.2344 255 0 0
-19.9219 0.2344 -4.2969 0 31 223
-19.9219 0.0781 -4.1406 0 39 215
-19.7656 0.0781 -4.1406 0 39 215
-19.9219 0.2344 -4.1406 0 39 215
-19.7656 0.2344 -4.1406 0 39 215
-19.9219 0.0781 -3.9844 0 47 207
-19.9219 0.2344 -3.9844 0 47 207
-19.4531 0.2344 -3.8281 0 54 200
-19.9219 0.3906 -3.9844 0 47 207
-19.6094 0.3906 -3.8281 0 54 200
-19.7656 0.7031 -3.8281 0 54 200
-19.9219 1.0156 -3.8281 0 54 200
-19.9219 1.1719 -3.8281 0 54 200
-19.4531 0.0781 -3.6719 0 62 192
-19.4531 0.3906 -3.6719 0 62 192
-19.2969 0.2344 -3.6719 0 62 192
-19.7656 0.8594 -3.6719 0 62 192
-19.6094 0.7031 -3.6719 0 62 192
-9.7656 0.2344 -3.8281 0 54 200
-9.6094 0.0781 -3.8281 0 54 200
-9.4531 0.0781 -3.8281 0 54 200
-9.6094 0.2344 -3.8281 0 54 200
-9.4531 0.2344 -3.8281 0 54 200
-9.6094 0.3906 -3.8281 0 54 200
-9.4531 0.3906 -3.8281 0 54 200
-9.6094 0.5469 -3.8281 0 54 200
-9.4531 0.5469 -3.8281 0 54 200
-9.2969 0.0781 -3.8281 0 54 200
-9.2969 0.2344 -3.8281 0 54 200
-9.7656 0.7031 -3.8281 0 54 200
-9.6094 0.7031 -3.8281 0 54 200
-9.4531 0.7031 -3.8281 0 54 200
-9.6094 0.8594 -3.8281 0 54 200
-9.4531 0.8594 -3.8281 0 54 200
-9.6094 1.0156 -3.8281 0 54 200
-9.4531 1.0156 -3.8281 0 54 200
-9.6094 1.1719 -3.8281 0 54 200
-9.4531 1.1719 -3.8281 0 54 200
-9.4531 1.3281 -3.8281 0 54 200
-9.4531 1.4844 -3.8281 0 54 200
-9.4531 1.6406 -3.8281 0 54 200
-9.6094 0.0781 -3.6719 0 62 192
-9.4531 0.0781 -3.6719 0 62 192
-9.6094 0.2344 -3.6719 0 62 192
-9.4531 0.2344 -3.6719 0 62 192
-9.6094 0.3906 -3.6719 0 62 192
-9.4531 0.3906 -3.6719 0 62 192
-9.6094 0.5469 -3.6719 0 62 192
-9.4531 0.5469 -3.6719 0 62 192
-9.2969 0.0781 -3.6719 0 62 192
-9.1406 0.0781 -3.6719 0 62 192
-9.2969 0.2344 -3.6719 0 62 192
-9.1406 0.2344 -3.6719 0 62 192
-8.8281 0.0781 -3.6719 0 62 192
-9.2969 0.3906 -3.6719 0 62 192
-9.1406 0.3906 -3.6719 0 62 192
-9.2969 0.5469 -3.6719 0 62 192
-9.1406 0.5469 -3.6719 0 62 192
-8.9844 0.5469 -3.5156 0 70 184
-9.6094 0.7031 -3.6719 0 62 192
-9.4531 0.7031 -3.6719 0 62 192
-9.6094 0.8594 -3.6719 0 62 192
-9.4531 0.8594 -3.6719 0 62 192
-9.6094 1.0156 -3.6719 0 62 192
-9.4531 1.0156 -3.6719 0 62 192
-9.6094 1.1719 -3.6719 0 62 192
-9.4531 1.1719 -3.6719 0 62 192
-9.2969 0.7031 -3.6719 0 62 192
-9.2969 0.8594 -3.6719 0 62 192
-9.1406 0.8594 -3.6719 0 62 192
-8.9844 0.7031 -3.6719 0 62 192
-8.9844 0.8594 -3.6719 0 62 192
-9.2969 1.0156 -3.6719 0 62 192
-9.1406 1.0156 -3.6719 0 62 192
-9.2969 1.1719 -3.6719 0 62 192
-8.9844 1.0156 -3.6719 0 62 192
-8.5156 0.0781 -3.5156 0 70 184
-8.5156 0.3906 -3.5156 0 70 184
-8.6719 0.5469 -3.5156 0 70 184
-8.2031 0.2344 -3.3594 0 78 176
-8.2031 0.3906 -3.3594 0 78 176
-7.5781 0.0781 -3.2031 0 86 168
-7.7344 0.2344 -3.2031 0 86 168
-7.5781 0.2344 -3.2031 0 86 168
-7.5781 0.3906 -3.2031 0 86 168
-7.7344 0.5469 -3.2031 0 86 168
-7.5781 0.5469 -3.2031 0 86 168
-8.6719 0.7031 -3.5156 0 70 184
-8.6719 0.8594 -3.5156 0 70 184
-8.6719 1.1719 -3.5156 0 70 184
-8.0469 0.7031 -3.3594 0 78 176
-8.0469 0.8594 -3.3594 0 78 176
-7.7344 0.7031 -3.2031 0 86 168
-7.7344 0.8594 -3.2031 0 86 168
-8.0469 1.0156 -3.3594 0 78 176
-8.0469 1.1719 -3.3594 0 78 176
-7.7344 1.0156 -3.2031 0 86 168
-7.7344 1.1719 -3.2031 0 86 168
-9.6094 1.3281 -3.6719 0 62 192
-9.4531 1.3281 -3.6719 0 62 192
-9.6094 1.4844 -3.6719 0 62 192
-9.4531 1.4844 -3.6719 0 62 192
-9.6094 1.6406 -3.6719 0 62 192
-9.4531 1.6406 -3.6719 0 62 192
-9.6094 1.7969 -3.6719 0 62 192
-9.4531 1.7969 -3.6719 0 62 192
-9.4531 1.6406 -3.5156 0 70 184
-9.2969 1.3281 -3.6719 0 62 192
-9.2969 1.4844 -3.6719 0 62 192
-9.1406 1.4844 -3.6719 0 62 192
-9.1406 1.3281 -3.5156 0 70 184
-8.8281 1.3281 -3.5156 0 70 184
-9.2969 1.6406 -3.6719 0 62 192
-9.1406 1.6406 -3.6719 0 62 192
-9.2969 1.7969 -3.6719 0 62 192
-9.1406 1.7969 -3.6719 0 62 192
-9.2969 1.6406 -3.5156 0 70 184
-9.2969 1.7969 -3.5156 0 70 184
-9.1406 1.7969 -3.5156 0 70 184
-8.9844 1.7969 -3.5156 0 70 184
-9.6094 1.9531 -3.6719 0 62 192
-9.4531 1.9531 -3.6719 0 62 192
-9.6094 2.1094 -3.6719 0 62 192
-9.4531 2.1094 -3.6719 0 62 192
-9.4531 1.9531 -3.5156 0 70 184
-9.4531 2.1094 -3.5156 0 70 184
-9.6094 2.2656 -3.6719 0 62 192
-9.4531 2.2656 -3.6719 0 62 192
-9.6094 2.4219 -3.6719 0 62 192
-9.4531 2.4219 -3.6719 0 62 192
-9.4531 2.2656 -3.5156 0 70 184
-9.4531 2.4219 -3.5156 0 70 184
-9.2969 1.9531 -3.6719 0 62 192
-9.2969 2.1094 -3.6719 0 62 192
-9.2969 1.9531 -3.5156 0 70 184
-9.2969 2.1094 -3.5156 0 70 184
-9.1406 2.1094 -3.5156 0 70 184
-8.9844 2.1094 -3.5156 0 70 184
-9.2969 2.2656 -3.6719 0 62 192
-9.2969 2.4219 -3.6719 0 62 192
-9.2969 2.2656 -3.5156 0 70 184
-9.1406 2.2656 -3.5156 0 70 184
-9.2969 2.4219 -3.5156 0 70 184
-9.1406 2.4219 -3.5156 0 70 184
-8.8281 2.2656 -3.5156 0 70 184
-8.9844 2.4219 -3.5156 0 70 184
-8.8281 2.4219 -3.5156 0 70 184
-8.5156 1.4844 -3.3594 0 78 176
-8.3594 1.4844 -3.3594 0 78 176
-8.2031 1.4844 -3.3594 0 78 176
-8.5156 1.6406 -3.3594 0 78 176
-8.2031 1.6406 -3.3594 0 78 176
-8.2031 1.7969 -3.3594 0 78 176
-8.0469 1.3281 -3.3594 0 78 176
-7.7344 1.3281 -3.2031 0 86 168
-7.7344 1.4844 -3.2031 0 86 168
-7.8906 1.6406 -3.2031 0 86 168
-7.8906 1.7969 -3.2031 0 86 168
-8.6719 1.9531 -3.5156 0 70 184
-8.6719 2.1094 -3.5156 0 70 184
-8.2031 1.9531 -3.3594 0 78 176
-8.2031 2.1094 -3.3594 0 78 176
-7.8906 1.9531 -3.2031 0 86 168
-7.8906 2.1094 -3.2031 0 86 168
-7.8906 2.2656 -3.2031 0 86 168
-7.8906 2.4219 -3.2031 0 86 168
-7.5781 2.1094 -3.0469 0 94 160
-7.5781 2.2656 -3.0469 0 94 160
-7.5781 2.4219 -3.0469 0 94 160
-7.2656 0.0781 -3.0469 0 94 160
-7.2656 0.2344 -3.0469 0 94 160
-7.1094 0.0781 -3.0469 0 94 160
-7.2656 0.3906 -3.0469 0 94 160
-7.2656 0.5469 -3.0469 0 94 160
-7.1094 0.5469 -3.0469 0 94 160
-6.6406 0.3906 -2.8906 0 102 153
-6.6406 0.5469 -2.8906 0 102 153
-6.4844 0.5469 -2.7344 0 109 145
-7.4219 0.7031 -3.0469 0 94 160
-7.2656 0.7031 -3.0469 0 94 160
-7.4219 0.8594 -3.0469 0 94 160
-7.1094 0.7031 -3.0469 0 94 160
-7.1094 0.8594 -3.0469 0 94 160
-6.9531 0.8594 -2.8906 0 102 153
-7.4219 1.0156 -3.0469 0 94 160
-7.1094 1.0156 -2.8906 0 102 153
-6.9531 1.0156 -2.8906 0 102 153
-7.1094 1.1719 -2.8906 0 102 153
-6.7969 1.0156 -2.8906 0 102 153
-6.7969 1.1719 -2.8906 0 102 153
-7.4219 1.3281 -3.0469 0 94 160
-7.4219 1.4844 -3.0469 0 94 160
-7.1094 1.3281 -2.8906 0 102 153
-7.1094 1.4844 -2.8906 0 102 153
-6.9531 1.4844 -2.8906 0 102 153
-7.4219 1.6406 -3.0469 0 94 160
-7.1094 1.6406 -2.8906 0 102 153
-6.9531 1.6406 -2.8906 0 102 153
-7.1094 1.7969 -2.8906 0 102 153
-6.7969 1.3281 -2.8906 0 102 153
-6.6406 1.4844 -2.7344 0 109 145
-6.3281 1.4844 -2.7344 0 109 145
-6.7969 1.6406 -2.7344 0 109 145
-6.6406 1.6406 -2.7344 0 109 145
-6.6406 1.7969 -2.7344 0 109 145
-7.4219 1.9531 -3.0469 0 94 160
-7.1094 1.9531 -2.8906 0 102 153
-7.1094 2.1094 -2.8906 0 102 153
-7.1094 2.2656 -2.8906 0 102 153
-7.1094 2.4219 -2.8906 0 102 153
-6.6406 1.9531 -2.7344 0 109 145
-6.4844 1.9531 -2.7344 0 109 145
-6.4844 2.1094 -2.7344 0 109 145
-6.6406 2.4219 -2.7344 0 109 145
-6.4844 2.2656 -2.7344 0 109 145
-6.4844 2.4219 -2.7344 0 109 145
-6.1719 1.9531 -2.5781 0 117 137
-6.1719 2.1094 -2.5781 0 117 137
-6.1719 2.2656 -2.5781 0 117 137
-6.1719 2.4219 -2.5781 0 117 137
-9.4531 2.5781 -3.6719 0 62 192
-9.4531 2.5781 -3.5156 0 70 184
-9.4531 2.7344 -3.5156 0 70 184
-9.4531 2.8906 -3.6719 0 62 192
-9.4531 3.0469 -3.6719 0 62 192
-9.4531 2.8906 -3.5156 0 70 184
-9.4531 3.0469 -3.5156 0 70 184
-9.2969 2.5781 -3.6719 0 62 192
-9.1406 2.5781 -3.6719 0 62 192
-9.1406 2.7344 -3.6719 0 62 192
-9.2969 2.5781 -3.5156 0 70 184
-9.1406 2.5781 -3.5156 0 70 184
-9.2969 2.7344 -3.5156 0 70 184
-9.1406 2.7344 -3.5156 0 70 184
-8.9844 2.5781 -3.5156 0 70 184
-8.9844 2.7344 -3.5156 0 70 184
-8.8281 2.7344 -3.5156 0 70 184
-9.1406 2.8906 -3.6719 0 62 192
-9.1406 3.0469 -3.6719 0 62 192
-9.2969 2.8906 -3.5156 0 70 184
-9.1406 2.8906 -3.5156 0 70 184
-9.2969 3.0469 -3.5156 0 70 184
-9.1406 3.0469 -3.5156 0 70 184
-8.9844 2.8906 -3.5156 0 70 184
-8.8281 2.8906 -3.5156 0 70 184
-8.9844 3.0469 -3.5156 0 70 184
-8.8281 3.0469 -3.5156 0 70 184
-9.4531 3.3594 -3.5156 0 70 184
-9.2969 3.2031 -3.5156 0 70 184
-9.1406 3.2031 -3.5156 0 70 184
-9.2969 3.3594 -3.5156 0 70 184
-9.1406 3.3594 -3.5156 0 70 184
-8.9844 3.2031 -3.5156 0 70 184
-8.9844 3.3594 -3.5156 0 70 184
-9.2969 3.5156 -3.5156 0 70 184
-9.1406 3.5156 -3.5156 0 70 184
-9.2969 3.6719 -3.5156 0 70 184
-9.1406 3.6719 -3.5156 0 70 184
-8.9844 3.5156 -3.5156 0 70 184
-8.9844 3.6719 -3.5156 0 70 184
-9.1406 3.2031 -3.3594 0 78 176
-8.8281 3.2031 -3.3594 0 78 176
-8.8281 3.3594 -3.3594 0 78 176
-9.1406 3.5156 -3.3594 0 78 176
-9.1406 3.6719 -3.3594 0 78 176
-8.8281 3.5156 -3.3594 0 78 176
-8.5156 2.5781 -3.3594 0 78 176
-8.5156 2.7344 -3.3594 0 78 176
-8.5156 3.0469 -3.3594 0 78 176
-7.8906 2.5781 -3.2031 0 86 168
-8.0469 2.7344 -3.2031 0 86 168
-8.0469 2.8906 -3.2031 0 86 168
-8.0469 3.0469 -3.2031 0 86 168
-8.5156 3.2031 -3.3594 0 78 176
-8.5156 3.3594 -3.3594 0 78 176
-8.3594 3.2031 -3.2031 0 86 168
-8.6719 3.5156 -3.3594 0 78 176
-8.5156 3.5156 -3.3594 0 78 176
-8.6719 3.6719 -3.3594 0 78 176
-8.3594 3.6719 -3.2031 0 86 168
-8.0469 3.2031 -3.2031 0 86 168
-8.0469 3.3594 -3.2031 0 86 168
-8.0469 3.5156 -3.2031 0 86 168
-8.0469 3.6719 -3.2031 0 86 168
-7.5781 2.5781 -3.0469 0 94 160
-7.5781 2.7344 -3.0469 0 94 160
-7.5781 2.8906 -3.0469 0 94 160
-7.5781 3.0469 -3.0469 0 94 160
-7.5781 3.2031 -3.0469 0 94 160
-7.5781 3.3594 -3.0469 0 94 160
-7.7344 3.5156 -3.0469 0 94 160
-7.7344 3.6719 -3.0469 0 94 160
-9.2969 3.8281 -3.5156 0 70 184
-9.1406 3.8281 -3.5156 0 70 184
-9.1406 3.9844 -3.5156 0 70 184
-9.1406 4.1406 -3.5156 0 70 184
-8.9844 4.1406 -3.5156 0 70 184
-9.1406 3.8281 -3.3594 0 78 176
-9.1406 3.9844 -3.3594 0 78 176
-8.9844 3.8281 -3.3594 0 78 176
-8.8281 3.8281 -3.3594 0 78 176
-8.9844 3.9844 -3.3594 0 78 176
-8.8281 3.9844 -3.3594 0 78 176
-9.1406 4.1406 -3.3594 0 78 176
-9.1406 4.2969 -3.3594 0 78 176
-8.9844 4.1406 -3.3594 0 78 176
-8.8281 4.1406 -3.3594 0 78 176
-8.9844 4.2969 -3.3594 0 78 176
-8.8281 4.2969 -3.3594 0 78 176
-8.9844 4.4531 -3.3594 0 78 176
-8.8281 4.4531 -3.3594 0 78 176
-8.9844 4.6094 -3.3594 0 78 176
-8.8281 4.6094 -3.3594 0 78 176
-8.9844 4.7656 -3.3594 0 78 176
-8.8281 4.7656 -3.3594 0 78 176
-8.8281 4.9219 -3.3594 0 78 176
-8.6719 3.8281 -3.3594 0 78 176
-8.5156 3.8281 -3.3594 0 78 176
-8.6719 3.9844 -3.3594 0 78 176
-8.5156 3.9844 -3.3594 0 78 176
-8.3594 3.8281 -3.2031 0 86 168
-8.2031 3.9844 -3.2031 0 86 168
-8.6719 4.1406 -3.3594 0 78 176
-8.5156 4.1406 -3.3594 0 78 176
-8.6719 4.2969 -3.3594 0 78 176
-8.5156 4.1406 -3.2031 0 86 168
-8.2031 4.1406 -3.2031 0 86 168
-8.6719 4.4531 -3.3594 0 78 176
-8.6719 4.6094 -3.3594 0 78 176
-8.5156 4.4531 -3.2031 0 86 168
-8.5156 4.6094 -3.2031 0 86 168
-8.3594 4.4531 -3.2031 0 86 168
-8.2031 4.6094 -3.2031 0 86 168
-8.6719 4.7656 -3.3594 0 78 176
-8.6719 4.9219 -3.3594 0 78 176
-8.5156 4.9219 -3.3594 0 78 176
-8.6719 4.7656 -3.2031 0 86 168
-8.5156 4.7656 -3.2031 0 86 168
-8.6719 4.9219 -3.2031 0 86 168
-8.3594 4.7656 -3.2031 0 86 168
-8.2031 4.7656 -3.2031 0 86 168
-8.3594 4.9219 -3.2031 0 86 168
-7.7344 3.8281 -3.0469 0 94 160
-7.7344 3.9844 -3.0469 0 94 160
-8.0469 4.2969 -3.0469 0 94 160
-7.7344 4.1406 -3.0469 0 94 160
-7.7344 4.2969 -3.0469 0 94 160
-7.8906 4.6094 -2.8906 0 102 153
-7.7344 4.4531 -3.0469 0 94 160
-7.7344 4.6094 -3.0469 0 94 160
-8.0469 4.9219 -3.0469 0 94 160
-7.7344 4.7656 -3.0469 0 94 160
-7.1094 2.5781 -2.8906 0 102 153
-7.1094 2.7344 -2.8906 0 102 153
-7.1094 2.8906 -2.8906 0 102 153
-7.1094 3.0469 -2.8906 0 102 153
-6.6406 2.5781 -2.7344 0 109 145
-6.4844 2.5781 -2.7344 0 109 145
-6.4844 2.7344 -2.7344 0 109 145
-7.2656 3.2031 -2.8906 0 102 153
-7.2656 3.3594 -2.8906 0 102 153
-7.1094 3.2031 -2.8906 0 102 153
-7.1094 3.3594 -2.8906 0 102 153
-7.2656 3.5156 -2.8906 0 102 153
-7.2656 3.6719 -2.8906 0 102 153
-7.1094 3.5156 -2.8906 0 102 153
-7.1094 3.6719 -2.8906 0 102 153
-6.9531 3.5156 -2.7344 0 109 145
-6.7969 3.2031 -2.7344 0 109 145
-6.7969 3.5156 -2.7344 0 109 145
-6.6406 3.5156 -2.7344 0 109 145
-6.7969 3.6719 -2.7344 0 109 145
-6.6406 3.6719 -2.7344 0 109 145
-6.6406 3.6719 -2.5781 0 117 137
-6.1719 2.5781 -2.5781 0 117 137
-6.1719 2.7344 -2.5781 0 117 137
-6.1719 2.8906 -2.5781 0 117 137
-6.1719 3.0469 -2.5781 0 117 137
-6.1719 3.2031 -2.5781 0 117 137
-6.1719 3.3594 -2.5781 0 117 137
-6.1719 3.5156 -2.5781 0 117 137
-7.2656 3.8281 -2.8906 0 102 153
-7.2656 3.9844 -2.8906 0 102 153
-7.2656 4.1406 -2.8906 0 102 153
-7.4219 4.2969 -2.8906 0 102 153
-7.2656 4.2969 -2.8906 0 102 153
-6.7969 3.8281 -2.7344 0 109 145
-6.7969 3.9844 -2.7344 0 109 145
-6.6406 3.8281 -2.5781 0 117 137
-6.6406 3.9844 -2.5781 0 117 137
-6.4844 3.8281 -2.5781 0 117 137
-6.3281 3.8281 -2.5781 0 117 137
-6.3281 3.9844 -2.5781 0 117 137
-6.7969 4.1406 -2.7344 0 109 145
-6.7969 4.2969 -2.7344 0 109 145
-6.6406 4.1406 -2.5781 0 117 137
-7.4219 4.6094 -2.8906 0 102 153
-7.4219 4.7656 -2.8906 0 102 153
-6.9531 4.6094 -2.7344 0 109 145
-6.9531 4.7656 -2.7344 0 109 145
-6.9531 4.9219 -2.7344 0 109 145
-6.7969 4.4531 -2.7344 0 109 145
-6.7969 4.6094 -2.7344 0 109 145
-6.7969 4.7656 -2.7344 0 109 145
-6.7969 4.9219 -2.7344 0 109 145
-6.4844 4.9219 -2.5781 0 117 137
-6.0156 4.1406 -2.4219 0 125 129
-6.0156 4.2969 -2.4219 0 125 129
-6.0156 4.4531 -2.4219 0 125 129
-6.0156 4.6094 -2.4219 0 125 129
-5.7031 4.6094 -2.2656 0 133 121
-6.0156 4.7656 -2.4219 0 125 129
-6.0156 4.9219 -2.4219 0 125 129
-5.7031 4.7656 -2.2656 0 133 121
-4.9219 0.0781 -2.8906 0 102 153
-4.7656 0.0781 -2.8906 0 102 153
-4.7656 0.2344 -2.8906 0 102 153
-4.7656 0.3906 -2.8906 0 102 153
-4.9219 0.5469 -2.8906 0 102 153
-4.7656 0.5469 -2.8906 0 102 153
-4.4531 0.2344 -2.7344 0 109 145
-4.4531 0.3906 -2.7344 0 109 145
-4.2969 0.0781 -2.7344 0 109 145
-4.1406 0.0781 -2.7344 0 109 145
-4.2969 0.2344 -2.7344 0 109 145
-4.1406 0.2344 -2.7344 0 109 145
-3.9844 0.0781 -2.7344 0 109 145
-3.9844 0.2344 -2.7344 0 109 145
-3.8281 0.2344 -2.5781 0 117 137
-4.2969 0.3906 -2.7344 0 109 145
-4.1406 0.3906 -2.7344 0 109 145
-4.2969 0.5469 -2.7344 0 109 145
-4.1406 0.5469 -2.7344 0 109 145
-3.9844 0.3906 -2.7344 0 109 145
-3.8281 0.3906 -2.7344 0 109 145
-3.9844 0.5469 -2.7344 0 109 145
-3.8281 0.5469 -2.5781 0 117 137
-4.7656 0.7031 -2.8906 0 102 153
-4.7656 0.8594 -2.8906 0 102 153
-4.6094 0.7031 -2.8906 0 102 153
-4.6094 0.8594 -2.8906 0 102 153
-4.7656 0.8594 -2.7344 0 109 145
-4.4531 0.7031 -2.7344 0 109 145
-4.6094 0.8594 -2.7344 0 109 145
-4.4531 0.8594 -2.7344 0 109 145
-4.7656 1.0156 -2.7344 0 109 145
-4.6094 1.0156 -2.7344 0 109 145
-4.4531 1.0156 -2.7344 0 109 145
-4.6094 1.1719 -2.7344 0 109 145
-4.4531 1.1719 -2.7344 0 109 145
-4.2969 0.7031 -2.7344 0 109 145
-4.1406 0.7031 -2.7344 0 109 145
-4.2969 0.8594 -2.7344 0 109 145
-4.1406 0.8594 -2.7344 0 109 145
-3.8281 0.7031 -2.7344 0 109 145
-3.8281 0.7031 -2.5781 0 117 137
-3.8281 0.8594 -2.5781 0 117 137
-4.2969 1.0156 -2.7344 0 109 145
-4.1406 1.1719 -2.7344 0 109 145
-3.9844 1.0156 -2.5781 0 117 137
-3.8281 1.0156 -2.5781 0 117 137
-3.9844 1.1719 -2.5781 0 117 137
-3.8281 1.1719 -2.5781 0 117 137
-3.6719 0.0781 -2.5781 0 117 137
-3.5156 0.0781 -2.5781 0 117 137
-3.5156 0.2344 -2.5781 0 117 137
-3.3594 0.0781 -2.5781 0 117 137
-3.6719 0.3906 -2.5781 0 117 137
-3.5156 0.3906 -2.5781 0 117 137
-3.6719 0.5469 -2.5781 0 117 137
-3.5156 0.5469 -2.5781 0 117 137
-3.5156 0.7031 -2.5781 0 117 137
-3.6719 0.8594 -2.5781 0 117 137
-3.6719 1.0156 -2.5781 0 117 137
-3.6719 1.1719 -2.5781 0 117 137
-4.6094 1.3281 -2.7344 0 109 145
-4.4531 1.3281 -2.7344 0 109 145
-4.4531 1.4844 -2.7344 0 109 145
-4.4531 1.6406 -2.7344 0 109 145
-4.4531 1.7969 -2.7344 0 109 145
-4.1406 1.3281 -2.5781 0 117 137
-3.9844 1.3281 -2.5781 0 117 137
-3.8281 1.3281 -2.5781 0 117 137
-3.9844 1.4844 -2.5781 0 117 137
-4.2969 1.6406 -2.7344 0 109 145
-4.2969 1.7969 -2.5781 0 117 137
-3.9844 1.6406 -2.5781 0 117 137
-3.8281 1.6406 -2.5781 0 117 137
-4.4531 1.9531 -2.7344 0 109 145
-4.2969 1.9531 -2.7344 0 109 145
-4.2969 1.9531 -2.5781 0 117 137
-4.2969 2.1094 -2.5781 0 117 137
-4.1406 2.1094 -2.5781 0 117 137
-4.2969 2.2656 -2.5781 0 117 137
-4.1406 2.2656 -2.5781 0 117 137
-4.1406 2.4219 -2.5781 0 117 137
-3.9844 2.4219 -2.5781 0 117 137
-3.6719 1.3281 -2.5781 0 117 137
-3.6719 1.4844 -2.5781 0 117 137
-4.1406 2.5781 -2.5781 0 117 137
-3.9844 2.5781 -2.5781 0 117 137
-3.2031 0.0781 -2.4219 0 125 129
-3.2031 0.2344 -2.4219 0 125 129
-3.5156 0.3906 -2.4219 0 125 129
-3.3594 0.3906 -2.4219 0 125 129
-3.2031 0.5469 -2.4219 0 125 129
-2.8906 0.0781 -2.4219 0 125 129
-3.0469 0.2344 -2.4219 0 125 129
-2.8906 0.0781 -2.2656 0 133 121
-2.5781 0.0781 -2.2656 0 133 121
-2.7344 0.2344 -2.2656 0 133 121
-3.0469 0.3906 -2.4219 0 125 129
-2.8906 0.5469 -2.2656 0 133 121
-2.7344 0.3906 -2.2656 0 133 121
-2.5781 0.3906 -2.1094 0 141 113
-2.5781 0.5469 -2.1094 0 141 113
-3.5156 0.8594 -2.4219 0 125 129
-3.3594 0.7031 -2.4219 0 125 129
-3.2031 0.7031 -2.4219 0 125 129
-3.3594 0.8594 -2.4219 0 125 129
-3.6719 1.0156 -2.4219 0 125 129
-3.3594 1.0156 -2.4219 0 125 129
-3.2031 1.0156 -2.4219 0 125 129
-3.3594 1.1719 -2.4219 0 125 129
-3.0469 0.8594 -2.4219 0 125 129
-3.0469 0.7031 -2.2656 0 133 121
-2.8906 0.7031 -2.2656 0 133 121
-2.8906 0.8594 -2.2656 0 133 121
-2.7344 0.7031 -2.2656 0 133 121
-2.7344 0.8594 -2.2656 0 133 121
-2.8906 1.0156 -2.2656 0 133 121
-3.0469 1.1719 -2.2656 0 133 121
-2.8906 1.1719 -2.2656 0 133 121
-2.5781 1.0156 -2.1094 0 141 113
-2.5781 1.1719 -2.1094 0 141 113
-3.9844 2.4219 -2.4219 0 125 129
-3.6719 1.3281 -2.4219 0 125 129
-3.5156 1.3281 -2.4219 0 125 129
-3.6719 1.4844 -2.4219 0 125 129
-3.5156 1.4844 -2.4219 0 125 129
-3.3594 1.3281 -2.4219 0 125 129
-3.3594 1.4844 -2.4219 0 125 129
-3.2031 1.4844 -2.4219 0 125 129
-3.2031 1.4844 -2.2656 0 133 121
-3.6719 1.6406 -2.4219 0 125 129
-3.5156 1.6406 -2.4219 0 125 129
-3.6719 1.7969 -2.4219 0 125 129
-3.5156 1.7969 -2.4219 0 125 129
-3.3594 1.6406 -2.4219 0 125 129
-3.3594 1.7969 -2.2656 0 133 121
-3.0469 1.3281 -2.2656 0 133 121
-2.8906 1.3281 -2.2656 0 133 121
-3.0469 1.6406 -2.2656 0 133 121
-2.8906 1.6406 -2.2656 0 133 121
-3.0469 1.7969 -2.2656 0 133 121
-2.8906 1.7969 -2.2656 0 133 121
-2.8906 1.4844 -2.1094 0 141 113
-2.5781 1.3281 -2.1094 0 141 113
-2.7344 1.4844 -2.1094 0 141 113
-2.5781 1.4844 -2.1094 0 141 113
-2.5781 1.6406 -2.1094 0 141 113
-2.7344 1.7969 -2.1094 0 141 113
-2.5781 1.7969 -2.1094 0 141 113
-3.6719 1.9531 -2.4219 0 125 129
-3.5156 1.9531 -2.4219 0 125 129
-3.5156 1.9531 -2.2656 0 133 121
-3.2031 1.9531 -2.2656 0 133 121
-3.3594 2.1094 -2.2656 0 133 121
-3.2031 2.1094 -2.2656 0 133 121
-3.2031 2.2656 -2.2656 0 133 121
-3.0469 1.9531 -2.2656 0 133 121
-3.0469 2.1094 -2.2656 0 133 121
-3.0469 2.2656 -2.2656 0 133 121
-3.0469 2.4219 -2.2656 0 133 121
-2.7344 1.9531 -2.1094 0 141 113
-2.5781 1.9531 -2.1094 0 141 113
-2.7344 2.1094 -2.1094 0 141 113
-2.5781 2.1094 -2.1094 0 141 113
-2.8906 2.4219 -2.1094 0 141 113
-2.7344 2.2656 -2.1094 0 141 113
-2.7344 2.4219 -2.1094 0 141 113
-2.4219 0.0781 -2.2656 0 133 121
-2.4219 0.2344 -2.2656 0 133 121
-2.4219 0.0781 -2.1094 0 141 113
-2.1094 0.0781 -2.1094 0 141 113
-1.9531 0.0781 -1.9531 0 149 105
-1.9531 0.2344 -1.9531 0 149 105
-2.2656 0.3906 -2.1094 0 141 113
-2.4219 0.5469 -2.1094 0 141 113
-2.2656 0.5469 -2.1094 0 141 113
-2.1094 0.3906 -1.9531 0 149 105
-1.9531 0.3906 -1.9531 0 149 105
-1.9531 0.5469 -1.9531 0 149 105
-1.6406 0.0781 -1.9531 0 149 105
-1.7969 0.2344 -1.9531 0 149 105
-1.7969 0.3906 -1.9531 0 149 105
-1.7969 0.5469 -1.9531 0 149 105
-2.4219 0.7031 -2.1094 0 141 113
-2.4219 0.8594 -2.1094 0 141 113
-2.2656 0.8594 -1.9531 0 149 105
-1.9531 0.7031 -1.9531 0 149 105
-2.1094 0.8594 -1.9531 0 149 105
-2.4219 1.0156 -2.1094 0 141 113
-2.2656 1.1719 -2.1094 0 141 113
-2.2656 1.0156 -1.9531 0 149 105
-2.2656 1.1719 -1.9531 0 149 105
-2.1094 1.0156 -1.9531 0 149 105
-1.9531 1.0156 -1.9531 0 149 105
-1.9531 1.1719 -1.9531 0 149 105
-1.7969 0.7031 -1.9531 0 149 105
-1.7969 0.8594 -1.9531 0 149 105
-1.7969 1.0156 -1.9531 0 149 105
-1.6406 0.3906 -1.7969 0 156 98
-1.6406 0.5469 -1.7969 0 156 98
-1.6406 0.8594 -1.7969 0 156 98
-1.6406 1.0156 -1.7969 0 156 98
-1.6406 1.1719 -1.7969 0 156 98
-1.4844 1.0156 -1.7969 0 156 98
-1.4844 1.1719 -1.7969 0 156 98
-2.4219 1.3281 -2.1094 0 141 113
-2.2656 1.3281 -2.1094 0 141 113
-2.4219 1.4844 -2.1094 0 141 113
-2.1094 1.3281 -1.9531 0 149 105
-1.9531 1.3281 -1.9531 0 149 105
-2.1094 1.4844 -1.9531 0 149 105
-1.9531 1.4844 -1.9531 0 149 105
-2.4219 1.6406 -2.1094 0 141 113
-2.4219 1.7969 -2.1094 0 141 113
-2.2656 1.6406 -1.9531 0 149 105
-2.2656 1.7969 -1.9531 0 149 105
-2.1094 1.7969 -1.9531 0 149 105
-2.2656 1.9531 -1.9531 0 149 105
-2.4219 2.1094 -1.9531 0 149 105
-2.2656 2.1094 -1.9531 0 149 105
-2.1094 1.9531 -1.9531 0 149 105
-2.1094 2.1094 -1.9531 0 149 105
-2.4219 2.2656 -1.9531 0 149 105
-2.2656 2.2656 -1.9531 0 149 105
-2.4219 2.4219 -1.9531 0 149 105
-2.1094 2.2656 -1.9531 0 149 105
-2.1094 2.4219 -1.9531 0 149 105
-1.6406 1.3281 -1.7969 0 156 98
-1.7969 1.4844 -1.7969 0 156 98
-1.6406 1.4844 -1.7969 0 156 98
-1.4844 1.3281 -1.7969 0 156 98
-1.4844 1.4844 -1.7969 0 156 98
-1.3281 1.4844 -1.6406 0 164 90
-1.7969 1.6406 -1.7969 0 156 98
-1.6406 1.6406 -1.7969 0 156 98
-1.7969 1.7969 -1.7969 0 156 98
-1.6406 1.7969 -1.7969 0 156 98
-1.3281 1.6406 -1.6406 0 164 90
-1.4844 1.7969 -1.6406 0 164 90
-1.3281 1.7969 -1.6406 0 164 90
-1.9531 1.9531 -1.7969 0 156 98
-1.7969 1.9531 -1.7969 0 156 98
-1.7969 2.1094 -1.7969 0 156 98
-1.6406 2.1094 -1.6406 0 164 90
-1.4844 1.9531 -1.6406 0 164 90
-1.4844 2.1094 -1.6406 0 164 90
-1.3281 2.1094 -1.6406 0 164 90
-1.6406 2.2656 -1.7969 0 156 98
-1.4844 2.2656 -1.6406 0 164 90
-1.3281 2.2656 -1.6406 0 164 90
-1.3281 2.4219 -1.6406 0 164 90
-1.1719 1.7969 -1.6406 0 164 90
-1.1719 1.9531 -1.6406 0 164 90
-1.1719 2.1094 -1.6406 0 164 90
-1.1719 2.2656 -1.6406 0 164 90
-1.1719 2.2656 -1.4844 0 172 82
-1.0156 2.2656 -1.4844 0 172 82
-1.0156 2.4219 -1.4844 0 172 82
-1.3281 0.2344 -0.8594 0 204 50
-1.4844 0.5469 -0.8594 0 204 50
-1.3281 0.5469 -0.8594 0 204 50
-1.4844 0.8594 -0.8594 0 204 50
-1.6406 1.1719 -0.8594 0 204 50
-1.3281 1.0156 -0.8594 0 204 50
-1.6406 1.3281 -0.8594 0 204 50
-1.4844 1.6406 -0.8594 0 204 50
-1.3281 1.7969 -0.7031 0 211 43
-1.3281 1.9531 -0.7031 0 211 43
-1.1719 1.6406 -0.8594 0 204 50
-1.1719 1.7969 -0.7031 0 211 43
-1.0156 1.7969 -0.7031 0 211 43
-1.1719 1.9531 -0.7031 0 211 43
-1.0156 1.9531 -0.7031 0 211 43
-1.1719 2.1094 -0.7031 0 211 43
-1.0156 2.1094 -0.7031 0 211 43
-0.8594 2.1094 -0.7031 0 211 43
-0.8594 2.2656 -0.7031 0 211 43
-1.0156 2.1094 -0.5469 0 219 35
-0.8594 2.1094 -0.5469 0 219 35
-0.7031 2.1094 -0.5469 0 219 35
-0.7031 2.2656 -0.5469 0 219 35
-0.5469 2.1094 -0.5469 0 219 35
-0.2344 2.1094 -0.3906 0 227 27
-0.0781 2.1094 -0.3906 0 227 27
-0.5469 2.2656 -0.5469 0 219 35
-0.2344 2.2656 -0.3906 0 227 27
-0.0781 2.2656 -0.3906 0 227 27
-0.2344 2.4219 -0.3906 0 227 27
-3.9844 2.5781 -2.4219 0 125 129
-3.8281 2.7344 -2.4219 0 125 129
-3.9844 2.8906 -2.4219 0 125 129
-3.8281 2.8906 -2.4219 0 125 129
-3.6719 2.7344 -2.4219 0 125 129
-3.6719 2.8906 -2.4219 0 125 129
-3.5156 3.0469 -2.2656 0 133 121
-3.3594 3.0469 -2.2656 0 133 121
-2.7344 2.5781 -2.1094 0 141 113
-2.5781 2.5781 -2.1094 0 141 113
-2.7344 2.7344 -2.1094 0 141 113
-3.6719 3.2031 -2.4219 0 125 129
-3.5156 3.2031 -2.2656 0 133 121
-3.3594 3.2031 -2.2656 0 133 121
-3.3594 3.3594 -2.2656 0 133 121
-3.2031 3.3594 -2.2656 0 133 121
-3.2031 3.5156 -2.2656 0 133 121
-3.2031 3.2031 -2.1094 0 141 113
-3.2031 3.3594 -2.1094 0 141 113
-3.2031 3.5156 -2.1094 0 141 113
-3.0469 3.3594 -2.1094 0 141 113
-2.8906 3.3594 -2.1094 0 141 113
-3.0469 3.5156 -2.1094 0 141 113
-2.8906 3.5156 -2.1094 0 141 113
-2.8906 3.6719 -2.1094 0 141 113
-2.7344 3.5156 -2.1094 0 141 113
-2.7344 3.5156 -1.9531 0 149 105
-2.5781 3.5156 -1.9531 0 149 105
-2.7344 3.6719 -1.9531 0 149 105
-2.5781 3.6719 -1.9531 0 149 105
-2.7344 3.8281 -1.9531 0 149 105
-2.4219 2.5781 -1.9531 0 149 105
-2.2656 2.5781 -1.9531 0 149 105
-2.2656 2.7344 -1.9531 0 149 105
-1.9531 2.5781 -1.9531 0 149 105
-2.1094 2.7344 -1.9531 0 149 105
-2.4219 3.6719 -1.9531 0 149 105
-2.2656 3.6719 -1.9531 0 149 105
-2.1094 2.5781 -1.7969 0 156 98
-1.9531 2.5781 -1.7969 0 156 98
-1.9531 2.7344 -1.7969 0 156 98
-1.9531 2.8906 -1.7969 0 156 98
-1.7969 2.5781 -1.7969 0 156 98
-1.7969 2.5781 -1.6406 0 164 90
-1.4844 2.5781 -1.6406 0 164 90
-1.3281 2.5781 -1.6406 0 164 90
-2.1094 3.6719 -1.7969 0 156 98
-1.9531 3.6719 -1.7969 0 156 98
-1.7969 3.6719 -1.6406 0 164 90
-1.4844 3.6719 -1.6406 0 164 90
-1.1719 2.5781 -1.6406 0 164 90
-1.1719 2.5781 -1.4844 0 172 82
-1.0156 2.5781 -1.4844 0 172 82
-0.8594 2.5781 -1.4844 0 172 82
-1.0156 3.5156 -1.4844 0 172 82
-1.1719 3.6719 -1.4844 0 172 82
-0.7031 3.5156 -1.3281 0 180 74
-0.8594 3.6719 -1.3281 0 180 74
-0.7031 3.6719 -1.3281 0 180 74
-0.3906 3.5156 -1.3281 0 180 74
-0.5469 3.6719 -1.3281 0 180 74
-0.3906 3.6719 -1.3281 0 180 74
-2.4219 3.8281 -1.9531 0 149 105
-2.2656 3.9844 -1.9531 0 149 105
-2.2656 3.8281 -1.7969 0 156 98
-2.1094 3.8281 -1.7969 0 156 98
-1.9531 3.8281 -1.7969 0 156 98
-2.1094 3.9844 -1.7969 0 156 98
-1.9531 3.9844 -1.7969 0 156 98
-1.9531 4.1406 -1.6406 0 164 90
-1.7969 3.8281 -1.7969 0 156 98
-1.7969 3.8281 -1.6406 0 164 90
-1.6406 3.8281 -1.6406 0 164 90
-1.6406 3.9844 -1.6406 0 164 90
-1.4844 3.8281 -1.6406 0 164 90
-1.3281 3.8281 -1.6406 0 164 90
-1.3281 3.9844 -1.6406 0 164 90
-1.4844 4.1406 -1.6406 0 164 90
-1.3281 3.8281 -1.4844 0 172 82
-1.3281 3.9844 -1.4844 0 172 82
-1.1719 4.1406 -1.6406 0 164 90
-1.1719 3.9844 -1.4844 0 172 82
-1.0156 3.9844 -1.3281 0 180 74
-0.7031 3.8281 -1.3281 0 180 74
-0.8594 3.9844 -1.3281 0 180 74
-1.1719 4.1406 -1.4844 0 172 82
-0.5469 3.8281 -1.3281 0 180 74
-0.3906 3.8281 -1.3281 0 180 74
-0.2344 3.5156 -1.1719 0 188 66
-0.2344 3.6719 -1.1719 0 188 66
-0.0781 3.6719 -1.1719 0 188 66
-0.3906 3.8281 -1.1719 0 188 66
-0.2344 3.8281 -1.1719 0 188 66
-0.0781 3.8281 -1.1719 0 188 66
-8.8281 5.0781 -3.3594 0 78 176
-8.8281 5.0781 -3.2031 0 86 168
-8.8281 5.2344 -3.2031 0 86 168
-8.6719 5.2344 -3.3594 0 78 176
-8.6719 5.0781 -3.2031 0 86 168
-8.5156 5.0781 -3.2031 0 86 168
-8.6719 5.2344 -3.2031 0 86 168
-8.5156 5.2344 -3.2031 0 86 168
-8.3594 5.0781 -3.2031 0 86 168
-8.2031 5.0781 -3.2031 0 86 168
-8.3594 5.2344 -3.2031 0 86 168
-8.2031 5.2344 -3.2031 0 86 168
-8.6719 5.3906 -3.2031 0 86 168
-8.5156 5.3906 -3.2031 0 86 168
-8.6719 5.5469 -3.2031 0 86 168
-8.5156 5.5469 -3.2031 0 86 168
-8.3594 5.3906 -3.2031 0 86 168
-8.2031 5.3906 -3.2031 0 86 168
-8.3594 5.5469 -3.2031 0 86 168
-8.2031 5.5469 -3.2031 0 86 168
-8.6719 5.7031 -3.2031 0 86 168
-8.5156 5.7031 -3.2031 0 86 168
-8.5156 5.8594 -3.2031 0 86 168
-8.3594 5.7031 -3.2031 0 86 168
-8.2031 5.7031 -3.2031 0 86 168
-8.3594 5.8594 -3.2031 0 86 168
-8.2031 5.8594 -3.2031 0 86 168
-8.3594 6.0156 -3.2031 0 86 168
-8.2031 6.1719 -3.2031 0 86 168
-8.2031 5.2344 -3.0469 0 94 160
-8.2031 5.3906 -3.0469 0 94 160
-7.8906 5.2344 -3.0469 0 94 160
-7.8906 5.0781 -2.8906 0 102 153
-8.0469 5.5469 -3.0469 0 94 160
-7.7344 5.3906 -2.8906 0 102 153
-7.5781 5.5469 -2.8906 0 102 153
-8.3594 5.7031 -3.0469 0 94 160
-8.2031 5.8594 -3.0469 0 94 160
-8.2031 6.0156 -3.0469 0 94 160
-8.2031 6.1719 -3.0469 0 94 160
-8.0469 5.7031 -3.0469 0 94 160
-8.0469 5.8594 -3.0469 0 94 160
-7.8906 5.8594 -3.0469 0 94 160
-7.8906 6.0156 -3.0469 0 94 160
-8.0469 6.1719 -3.0469 0 94 160
-7.8906 6.0156 -2.8906 0 102 153
-7.7344 6.1719 -2.8906 0 102 153
-7.5781 5.7031 -2.7344 0 109 145
-8.2031 6.3281 -3.0469 0 94 160
-8.0469 6.3281 -3.0469 0 94 160
-8.0469 6.4844 -3.0469 0 94 160
-7.8906 6.4844 -3.0469 0 94 160
-7.7344 6.3281 -2.8906 0 102 153
-7.5781 6.4844 -2.8906 0 102 153
-8.0469 6.6406 -3.0469 0 94 160
-7.8906 6.6406 -3.0469 0 94 160
-7.8906 6.7969 -3.0469 0 94 160
-7.8906 6.7969 -2.8906 0 102 153
-7.5781 6.6406 -2.8906 0 102 153
-7.5781 6.3281 -2.7344 0 109 145
-7.5781 6.4844 -2.7344 0 109 145
-7.5781 6.6406 -2.7344 0 109 145
-7.8906 6.9531 -3.0469 0 94 160
-7.8906 6.9531 -2.8906 0 102 153
-7.7344 6.9531 -3.0469 0 94 160
-7.7344 6.9531 -2.8906 0 102 153
-7.7344 7.1094 -2.8906 0 102 153
-7.5781 7.1094 -2.8906 0 102 153
-7.7344 7.2656 -2.8906 0 102 153
-7.5781 7.2656 -2.8906 0 102 153
-7.7344 7.4219 -2.8906 0 102 153
-7.5781 7.4219 -2.8906 0 102 153
-7.4219 5.0781 -2.8906 0 102 153
-7.4219 5.2344 -2.8906 0 102 153
-6.9531 5.0781 -2.7344 0 109 145
-6.9531 5.2344 -2.7344 0 109 145
-6.9531 5.3906 -2.7344 0 109 145
-7.1094 5.5469 -2.7344 0 109 145
-6.7969 5.0781 -2.7344 0 109 145
-6.6406 5.0781 -2.5781 0 117 137
-6.4844 5.0781 -2.5781 0 117 137
-6.4844 5.2344 -2.5781 0 117 137
-6.4844 5.3906 -2.5781 0 117 137
-6.4844 5.5469 -2.5781 0 117 137
-7.4219 5.7031 -2.8906 0 102 153
-7.4219 5.8594 -2.8906 0 102 153
-6.6406 5.8594 -2.5781 0 117 137
-6.4844 5.7031 -2.5781 0 117 137
-6.4844 5.8594 -2.5781 0 117 137
-6.3281 6.0156 -2.5781 0 117 137
-6.3281 6.1719 -2.5781 0 117 137
-7.4219 6.6406 -2.8906 0 102 153
-7.4219 6.7969 -2.8906 0 102 153
-6.9531 6.4844 -2.7344 0 109 145
-7.4219 6.7969 -2.7344 0 109 145
-6.6406 6.4844 -2.5781 0 117 137
-6.7969 6.6406 -2.5781 0 117 137
-6.6406 6.7969 -2.5781 0 117 137
-6.4844 6.6406 -2.5781 0 117 137
-7.2656 6.9531 -2.7344 0 109 145
-7.2656 7.1094 -2.7344 0 109 145
-7.2656 6.9531 -2.5781 0 117 137
-7.2656 7.1094 -2.5781 0 117 137
-6.9531 7.1094 -2.7344 0 109 145
-7.1094 7.2656 -2.7344 0 109 145
-6.9531 7.4219 -2.7344 0 109 145
-7.1094 7.2656 -2.5781 0 117 137
-6.9531 7.4219 -2.5781 0 117 137
-7.5781 7.5781 -2.8906 0 102 153
-7.5781 7.7344 -2.8906 0 102 153
-7.4219 7.5781 -2.8906 0 102 153
-7.4219 7.7344 -2.8906 0 102 153
-7.4219 7.8906 -2.8906 0 102 153
-7.4219 8.0469 -2.8906 0 102 153
-7.4219 7.5781 -2.7344 0 109 145
-7.4219 7.7344 -2.7344 0 109 145
-6.9531 7.5781 -2.5781 0 117 137
-7.4219 7.8906 -2.7344 0 109 145
-7.2656 8.0469 -2.7344 0 109 145
-6.7969 7.5781 -2.5781 0 117 137
-6.7969 7.7344 -2.5781 0 117 137
-6.6406 7.7344 -2.5781 0 117 137
-6.7969 7.8906 -2.5781 0 117 137
-6.6406 7.8906 -2.5781 0 117 137
-7.2656 8.2031 -2.7344 0 109 145
-7.2656 8.3594 -2.7344 0 109 145
-7.1094 8.3594 -2.7344 0 109 145
-7.1094 8.5156 -2.7344 0 109 145
-6.9531 8.5156 -2.7344 0 109 145
-7.1094 8.6719 -2.7344 0 109 145
-7.1094 8.6719 -2.5781 0 117 137
-6.9531 8.6719 -2.5781 0 117 137
-7.1094 8.8281 -2.7344 0 109 145
-6.9531 8.8281 -2.5781 0 117 137
-6.9531 8.9844 -2.5781 0 117 137
-6.7969 8.8281 -2.5781 0 117 137
-6.7969 8.9844 -2.5781 0 117 137
-6.7969 9.1406 -2.5781 0 117 137
-6.6406 9.1406 -2.5781 0 117 137
-6.7969 9.2969 -2.5781 0 117 137
-6.6406 9.2969 -2.5781 0 117 137
-6.4844 9.2969 -2.5781 0 117 137
-6.6406 9.4531 -2.5781 0 117 137
-6.6406 9.6094 -2.5781 0 117 137
-6.3281 5.0781 -2.4219 0 125 129
-6.0156 5.0781 -2.4219 0 125 129
-6.0156 5.2344 -2.4219 0 125 129
-5.7031 5.2344 -2.2656 0 133 121
-6.0156 5.3906 -2.4219 0 125 129
-6.0156 5.5469 -2.4219 0 125 129
-5.7031 5.3906 -2.2656 0 133 121
-5.7031 5.5469 -2.2656 0 133 121
-5.7031 5.7031 -2.2656 0 133 121
-5.7031 5.8594 -2.2656 0 133 121
-6.1719 6.1719 -2.4219 0 125 129
-5.7031 6.1719 -2.2656 0 133 121
-5.2344 6.0156 -2.1094 0 141 113
-6.3281 6.9531 -2.4219 0 125 129
-6.1719 6.3281 -2.4219 0 125 129
-6.0156 6.3281 -2.4219 0 125 129
-6.0156 6.4844 -2.4219 0 125 129
-5.8594 6.3281 -2.2656 0 133 121
-5.7031 6.3281 -2.2656 0 133 121
-5.7031 6.4844 -2.2656 0 133 121
-6.1719 6.6406 -2.4219 0 125 129
-6.1719 6.7969 -2.4219 0 125 129
-5.8594 6.6406 -2.4219 0 125 129
-5.5469 6.4844 -2.2656 0 133 121
-5.2344 6.3281 -2.1094 0 141 113
-5.2344 6.4844 -2.1094 0 141 113
-5.5469 6.6406 -2.1094 0 141 113
-5.3906 6.6406 -2.1094 0 141 113
-5.2344 6.6406 -2.1094 0 141 113
-5.2344 6.7969 -2.1094 0 141 113
-5.0781 6.7969 -2.1094 0 141 113
-6.1719 6.9531 -2.4219 0 125 129
-6.0156 6.9531 -2.4219 0 125 129
-6.1719 7.1094 -2.4219 0 125 129
-6.0156 7.1094 -2.4219 0 125 129
-6.0156 6.9531 -2.2656 0 133 121
-5.8594 7.2656 -2.4219 0 125 129
-5.8594 7.2656 -2.2656 0 133 121
-5.8594 7.4219 -2.2656 0 133 121
-5.7031 7.4219 -2.2656 0 133 121
-5.2344 6.9531 -2.1094 0 141 113
-5.3906 7.4219 -2.1094 0 141 113
-6.7969 7.5781 -2.4219 0 125 129
