ply
format ascii 1.0
comment OctoMap 3D export - Moose Robot
comment Resolution: 0.100 m
element vertex 1436
property float x
property float y
property float z
property uchar red
property uchar green
property uchar blue
end_header
-17.5781 -1.0156 4.6094 198 56 0
-17.5781 -0.8594 4.6094 198 56 0
-17.7344 -1.0156 4.7656 206 48 0
-17.5781 -1.1719 4.9219 214 40 0
-17.7344 -0.8594 4.7656 206 48 0
-17.5781 -0.7031 4.7656 206 48 0
-17.5781 -0.0781 4.6094 198 56 0
-17.5781 -0.3906 4.7656 206 48 0
-17.5781 -0.2344 4.7656 206 48 0
-17.2656 -2.2656 4.4531 190 64 0
-17.1094 -2.4219 4.4531 190 64 0
-17.1094 -2.2656 4.4531 190 64 0
-17.4219 -2.1094 4.4531 190 64 0
-17.2656 -1.9531 4.6094 198 56 0
-16.9531 -2.1094 4.4531 190 64 0
-17.1094 -1.9531 4.4531 190 64 0
-16.9531 -1.9531 4.4531 190 64 0
-17.2656 -2.4219 4.9219 214 40 0
-16.9531 -2.4219 4.7656 206 48 0
-17.1094 -2.2656 4.7656 206 48 0
-16.9531 -2.2656 4.7656 206 48 0
-17.1094 -2.4219 4.9219 214 40 0
-17.2656 -2.1094 4.7656 206 48 0
-17.1094 -2.1094 4.9219 214 40 0
-16.7969 -2.2656 4.4531 190 64 0
-17.2656 -1.7969 4.4531 190 64 0
-17.4219 -1.6406 4.4531 190 64 0
-17.2656 -1.6406 4.4531 190 64 0
-17.4219 -1.7969 4.6094 198 56 0
-17.2656 -1.7969 4.6094 198 56 0
-17.4219 -1.6406 4.6094 198 56 0
-17.2656 -1.6406 4.6094 198 56 0
-17.1094 -1.7969 4.4531 190 64 0
-16.9531 -1.7969 4.4531 190 64 0
-16.9531 -1.6406 4.6094 198 56 0
-17.4219 -1.4844 4.6094 198 56 0
-17.2656 -1.3281 4.6094 198 56 0
-17.1094 -1.4844 4.6094 198 56 0
-17.1094 -1.3281 4.6094 198 56 0
-17.2656 -1.6406 4.9219 214 40 0
-16.9531 -1.6406 4.7656 206 48 0
-17.1094 -1.7969 4.9219 214 40 0
-17.1094 -1.6406 4.9219 214 40 0
-16.9531 -1.6406 4.9219 214 40 0
-17.4219 -1.4844 4.9219 214 40 0
-17.4219 -1.3281 4.9219 214 40 0
-17.1094 -1.4844 4.9219 214 40 0
-16.7969 -1.7969 4.6094 198 56 0
-16.7969 -1.7969 4.7656 206 48 0
-15.0781 -1.7969 4.2969 182 72 0
-15.0781 -1.9531 4.6094 198 56 0
-15.2344 -1.7969 4.6094 198 56 0
-15.0781 -1.4844 4.4531 190 64 0
-15.2344 -1.3281 4.4531 190 64 0
-17.4219 -1.1719 4.6094 198 56 0
-17.4219 -1.0156 4.6094 198 56 0
-17.2656 -1.0156 4.6094 198 56 0
-17.1094 -1.0156 4.6094 198 56 0
-17.2656 -1.1719 4.7656 206 48 0
-17.1094 -1.1719 4.9219 214 40 0
-16.9531 -1.0156 4.9219 214 40 0
-17.2656 -0.8594 4.7656 206 48 0
-17.4219 -0.7031 4.7656 206 48 0
-16.4844 -1.1719 4.7656 206 48 0
-16.4844 -0.7031 4.7656 206 48 0
-17.2656 -0.3906 4.6094 198 56 0
-16.9531 -0.5469 4.4531 190 64 0
-16.9531 -0.3906 4.4531 190 64 0
-17.2656 -0.2344 4.6094 198 56 0
-17.2656 -0.0781 4.6094 198 56 0
-17.1094 -0.0781 4.6094 198 56 0
-16.9531 -0.0781 4.6094 198 56 0
-17.4219 -0.5469 4.7656 206 48 0
-17.2656 -0.5469 4.9219 214 40 0
-17.1094 -0.5469 4.9219 214 40 0
-16.7969 -0.2344 4.4531 190 64 0
-16.4844 -0.0781 4.9219 214 40 0
-16.1719 -0.7031 4.6094 198 56 0
-16.1719 -0.2344 4.7656 206 48 0
-14.4531 -2.8906 4.4531 190 64 0
-14.4531 -2.7344 4.4531 190 64 0
-14.7656 -2.2656 4.2969 182 72 0
-14.9219 -1.9531 4.2969 182 72 0
-14.9219 -1.6406 4.2969 182 72 0
-14.7656 -2.2656 4.4531 190 64 0
-14.6094 -2.4219 4.4531 190 64 0
-14.9219 -2.1094 4.6094 198 56 0
-8.3594 -9.4531 -1.6406 0 129 125
-8.6719 -8.8281 -1.4844 0 137 117
-8.0469 -8.8281 -1.6406 0 129 125
-9.2969 -8.5156 -1.4844 0 137 117
-8.9844 -8.0469 -1.4844 0 137 117
-8.8281 -7.8906 -1.3281 0 145 109
-8.9844 -7.5781 -1.4844 0 137 117
-8.2031 -8.6719 -2.1094 0 105 149
-8.2031 -7.5781 -1.9531 0 113 141
-8.0469 -7.8906 -1.9531 0 113 141
-7.7344 -7.5781 -1.9531 0 113 141
-8.3594 -8.2031 -1.4844 0 137 117
-7.7344 -8.2031 -1.4844 0 137 117
-8.6719 -7.7344 -1.6406 0 129 125
-8.3594 -7.7344 -1.6406 0 129 125
-8.3594 -7.5781 -1.6406 0 129 125
-8.0469 -7.7344 -1.3281 0 145 109
-6.6406 -9.1406 -1.3281 0 145 109
-6.4844 -8.8281 -1.3281 0 145 109
-6.0156 -9.4531 -1.4844 0 137 117
-5.8594 -8.9844 -1.4844 0 137 117
-7.4219 -8.2031 -2.1094 0 105 149
-7.4219 -8.6719 -1.3281 0 145 109
-6.4844 -8.5156 -1.3281 0 145 109
-7.4219 -7.7344 -1.3281 0 145 109
-7.4219 -7.5781 -1.3281 0 145 109
-5.8594 -8.6719 -1.3281 0 145 109
-5.8594 -8.5156 -1.3281 0 145 109
-5.8594 -8.2031 -1.3281 0 145 109
-7.2656 -8.3594 -1.1719 0 153 101
-6.4844 -8.2031 -1.1719 0 153 101
-7.1094 -7.8906 -1.1719 0 153 101
-6.9531 -7.5781 -1.0156 0 161 93
-6.3281 -7.8906 -1.1719 0 153 101
-6.3281 -7.5781 -1.1719 0 153 101
-5.7031 -7.8906 -1.1719 0 153 101
-5.7031 -7.7344 -1.1719 0 153 101
-8.8281 -7.4219 -1.6406 0 129 125
-8.8281 -6.9531 -1.3281 0 145 109
-8.3594 -7.2656 -1.6406 0 129 125
-8.3594 -6.9531 -1.6406 0 129 125
-8.5156 -7.2656 -1.3281 0 145 109
-8.6719 -6.9531 -1.4844 0 137 117
-8.2031 -7.1094 -1.4844 0 137 117
-8.3594 -6.9531 -1.4844 0 137 117
-8.3594 -7.1094 -1.3281 0 145 109
-8.0469 -6.9531 -1.7969 0 121 133
-7.8906 -7.2656 -1.3281 0 145 109
-8.2031 -6.6406 -1.4844 0 137 117
-8.6719 -6.3281 -1.3281 0 145 109
-8.2031 -6.4844 -1.4844 0 137 117
-8.3594 -6.3281 -1.3281 0 145 109
-8.0469 -6.7969 -1.7969 0 121 133
-7.5781 -6.6406 -1.7969 0 121 133
-7.8906 -6.3281 -1.6406 0 129 125
-7.5781 -6.3281 -1.6406 0 129 125
-7.8906 -6.4844 -1.3281 0 145 109
-7.7344 -6.3281 -1.3281 0 145 109
-8.2031 -6.0156 -1.4844 0 137 117
-8.5156 -5.8594 -1.3281 0 145 109
-7.8906 -6.1719 -1.6406 0 129 125
-8.0469 -6.1719 -1.4844 0 137 117
-7.8906 -6.0156 -1.3281 0 145 109
-7.7344 -6.0156 -1.3281 0 145 109
-8.0469 -5.8594 -1.3281 0 145 109
-7.7344 -5.7031 -1.4844 0 137 117
-7.7344 -5.7031 -1.3281 0 145 109
-7.7344 -5.5469 -1.4844 0 137 117
-7.7344 -5.5469 -1.3281 0 145 109
-7.5781 -5.0781 -1.4844 0 137 117
-8.8281 -6.9531 -1.1719 0 153 101
-7.7344 -6.9531 -1.1719 0 153 101
-8.2031 -6.7969 -1.1719 0 153 101
-8.2031 -6.6406 -1.1719 0 153 101
-8.6719 -6.4844 -1.1719 0 153 101
-8.2031 -6.3281 -1.1719 0 153 101
-7.7344 -6.6406 -1.1719 0 153 101
-8.0469 -6.4844 -1.1719 0 153 101
-8.0469 -6.3281 -1.1719 0 153 101
-7.5781 -6.4844 -1.1719 0 153 101
-7.5781 -6.3281 -1.1719 0 153 101
-8.5156 -6.1719 -1.1719 0 153 101
-8.2031 -6.0156 -1.1719 0 153 101
-8.3594 -5.8594 -1.0156 0 161 93
-8.3594 -5.7031 -1.0156 0 161 93
-8.0469 -6.1719 -1.1719 0 153 101
-8.0469 -6.0156 -1.0156 0 161 93
-7.5781 -6.1719 -1.1719 0 153 101
-7.5781 -6.1719 -1.0156 0 161 93
-8.0469 -5.7031 -1.1719 0 153 101
-7.8906 -5.7031 -1.0156 0 161 93
-7.7344 -5.7031 -1.1719 0 153 101
-8.3594 -5.5469 -1.1719 0 153 101
-8.2031 -5.3906 -1.0156 0 161 93
-8.2031 -5.2344 -1.1719 0 153 101
-7.8906 -5.3906 -1.1719 0 153 101
-8.0469 -5.3906 -1.0156 0 161 93
-7.7344 -5.3906 -1.1719 0 153 101
-7.5781 -5.3906 -1.1719 0 153 101
-7.7344 -5.3906 -1.0156 0 161 93
-7.8906 -5.2344 -1.1719 0 153 101
-7.8906 -5.0781 -1.0156 0 161 93
-7.7344 -5.2344 -1.1719 0 153 101
-7.7344 -5.0781 -1.1719 0 153 101
-8.0469 -5.0781 -0.8594 0 170 85
-7.5781 -5.0781 -0.8594 0 170 85
-7.4219 -7.2656 -1.9531 0 113 141
-7.1094 -7.4219 -1.9531 0 113 141
-7.4219 -7.2656 -1.3281 0 145 109
-7.4219 -6.7969 -1.7969 0 121 133
-7.1094 -6.6406 -1.7969 0 121 133
-7.2656 -6.4844 -1.7969 0 121 133
-7.2656 -6.3281 -1.6406 0 129 125
-7.1094 -6.3281 -1.7969 0 121 133
-6.7969 -6.6406 -1.7969 0 121 133
-6.7969 -6.3281 -1.7969 0 121 133
-7.2656 -6.0156 -1.6406 0 129 125
-7.1094 -6.0156 -1.6406 0 129 125
-7.1094 -5.8594 -1.6406 0 129 125
-6.6406 -5.8594 -1.6406 0 129 125
-7.1094 -5.5469 -1.4844 0 137 117
-7.4219 -5.2344 -1.4844 0 137 117
-7.4219 -5.0781 -1.4844 0 137 117
-7.1094 -5.2344 -1.4844 0 137 117
-6.9531 -5.2344 -1.4844 0 137 117
-7.1094 -5.0781 -1.4844 0 137 117
-6.6406 -5.5469 -1.6406 0 129 125
-6.6406 -5.2344 -1.4844 0 137 117
-6.6406 -5.0781 -1.4844 0 137 117
-6.9531 -7.4219 -1.0156 0 161 93
-7.2656 -6.9531 -1.1719 0 153 101
-6.3281 -7.4219 -1.1719 0 153 101
-6.7969 -7.1094 -1.0156 0 161 93
-6.7969 -6.9531 -1.0156 0 161 93
-7.1094 -6.6406 -1.1719 0 153 101
-7.1094 -6.4844 -1.1719 0 153 101
-6.7969 -6.6406 -1.0156 0 161 93
-6.7969 -6.4844 -0.8594 0 170 85
-6.6406 -6.3281 -0.8594 0 170 85
-5.7031 -7.4219 -1.1719 0 153 101
-5.7031 -7.2656 -1.1719 0 153 101
-6.1719 -7.1094 -1.1719 0 153 101
-6.1719 -6.9531 -1.0156 0 161 93
-6.1719 -6.7969 -1.0156 0 161 93
-6.1719 -6.6406 -1.0156 0 161 93
-6.1719 -6.4844 -1.0156 0 161 93
-6.9531 -6.1719 -1.1719 0 153 101
-6.9531 -6.0156 -1.0156 0 161 93
-7.4219 -5.8594 -1.0156 0 161 93
-7.4219 -5.7031 -1.0156 0 161 93
-6.6406 -6.0156 -0.8594 0 170 85
-6.4844 -5.8594 -0.8594 0 170 85
-7.4219 -5.5469 -1.0156 0 161 93
-7.4219 -5.3906 -1.0156 0 161 93
-7.4219 -5.2344 -1.0156 0 161 93
-7.2656 -5.0781 -0.8594 0 170 85
-6.4844 -5.5469 -0.7031 0 178 76
-6.4844 -5.3906 -0.7031 0 178 76
-6.4844 -5.2344 -0.7031 0 178 76
-6.4844 -5.0781 -0.7031 0 178 76
-6.1719 -6.1719 -0.8594 0 170 85
-6.1719 -6.0156 -0.8594 0 170 85
-6.1719 -5.8594 -0.8594 0 170 85
-6.0156 -5.2344 -0.7031 0 178 76
-7.7344 -4.9219 -1.4844 0 137 117
-7.7344 -4.7656 -1.3281 0 145 109
-7.7344 -4.4531 -1.3281 0 145 109
-8.2031 -4.9219 -1.1719 0 153 101
-8.2031 -4.9219 -1.0156 0 161 93
-8.2031 -4.7656 -1.0156 0 161 93
-7.8906 -4.9219 -1.0156 0 161 93
-7.5781 -4.9219 -1.1719 0 153 101
-7.7344 -4.7656 -1.1719 0 153 101
-7.5781 -4.7656 -1.1719 0 153 101
-7.7344 -4.9219 -1.0156 0 161 93
-7.7344 -4.7656 -1.0156 0 161 93
-8.0469 -4.6094 -1.0156 0 161 93
-7.8906 -4.4531 -1.0156 0 161 93
-7.5781 -4.4531 -1.1719 0 153 101
-7.5781 -4.6094 -1.0156 0 161 93
-7.7344 -4.4531 -1.0156 0 161 93
-7.5781 -4.4531 -1.0156 0 161 93
-7.8906 -4.7656 -0.8594 0 170 85
-7.5781 -4.9219 -0.8594 0 170 85
-7.5781 -4.7656 -0.8594 0 170 85
-7.8906 -4.6094 -0.8594 0 170 85
-8.0469 -4.4531 -0.8594 0 170 85
-7.8906 -4.4531 -0.8594 0 170 85
-7.5781 -4.6094 -0.8594 0 170 85
-7.5781 -4.4531 -0.8594 0 170 85
-7.5781 -4.2969 -1.1719 0 153 101
-7.7344 -4.2969 -1.0156 0 161 93
-7.5781 -4.2969 -1.0156 0 161 93
-7.7344 -4.1406 -1.0156 0 161 93
-7.5781 -4.1406 -1.0156 0 161 93
-7.7344 -3.9844 -1.0156 0 161 93
-7.5781 -3.9844 -1.0156 0 161 93
-7.8906 -4.2969 -0.8594 0 170 85
-7.7344 -4.2969 -0.7031 0 178 76
-7.8906 -3.9844 -0.8594 0 170 85
-7.8906 -3.8281 -0.8594 0 170 85
-7.7344 -3.9844 -0.7031 0 178 76
-7.7344 -3.8281 -0.7031 0 178 76
-7.5781 -3.6719 -1.1719 0 153 101
-7.5781 -3.6719 -1.0156 0 161 93
-7.5781 -3.2031 -1.0156 0 161 93
-7.8906 -3.5156 -0.8594 0 170 85
-7.5781 -3.6719 -0.8594 0 170 85
-7.5781 -3.5156 -0.8594 0 170 85
-7.7344 -3.6719 -0.7031 0 178 76
-7.5781 -3.6719 -0.7031 0 178 76
-7.7344 -3.5156 -0.7031 0 178 76
-7.5781 -3.5156 -0.7031 0 178 76
-7.8906 -3.3594 -0.8594 0 170 85
-7.8906 -3.2031 -0.8594 0 170 85
-7.5781 -3.3594 -0.8594 0 170 85
-7.5781 -3.2031 -0.8594 0 170 85
-7.7344 -3.3594 -0.7031 0 178 76
-7.5781 -3.3594 -0.7031 0 178 76
-7.7344 -3.2031 -0.7031 0 178 76
-7.8906 -3.0469 -0.8594 0 170 85
-7.7344 -3.0469 -0.7031 0 178 76
-7.5781 -3.0469 -0.7031 0 178 76
-7.7344 -2.8906 -0.7031 0 178 76
-7.5781 -2.8906 -0.7031 0 178 76
-7.7344 -2.7344 -0.7031 0 178 76
-7.5781 -2.7344 -0.7031 0 178 76
-7.7344 -2.5781 -0.7031 0 178 76
-7.5781 -3.3594 -0.5469 0 186 68
-7.5781 -3.2031 -0.5469 0 186 68
-7.5781 -2.7344 -0.5469 0 186 68
-7.7344 -2.5781 -0.5469 0 186 68
-7.4219 -4.7656 -1.3281 0 145 109
-6.9531 -4.9219 -1.4844 0 137 117
-6.9531 -4.7656 -1.4844 0 137 117
-7.4219 -4.4531 -1.3281 0 145 109
-6.6406 -4.7656 -1.4844 0 137 117
-6.6406 -4.9219 -1.3281 0 145 109
-6.7969 -4.7656 -1.3281 0 145 109
-6.7969 -4.6094 -1.3281 0 145 109
-6.7969 -4.4531 -1.3281 0 145 109
-7.4219 -4.2969 -1.3281 0 145 109
-7.4219 -4.1406 -1.3281 0 145 109
-6.9531 -4.2969 -1.3281 0 145 109
-6.9531 -4.1406 -1.3281 0 145 109
-6.7969 -4.2969 -1.3281 0 145 109
-6.6406 -4.1406 -1.3281 0 145 109
-6.4844 -4.1406 -1.3281 0 145 109
-6.7969 -3.9844 -1.3281 0 145 109
-6.6406 -3.9844 -1.3281 0 145 109
-6.4844 -3.8281 -1.3281 0 145 109
-6.6406 -3.6719 -1.3281 0 145 109
-7.4219 -4.9219 -1.1719 0 153 101
-7.4219 -4.7656 -1.1719 0 153 101
-7.4219 -4.6094 -1.1719 0 153 101
-7.4219 -4.4531 -1.0156 0 161 93
-7.1094 -4.4531 -0.8594 0 170 85
-6.4844 -4.9219 -0.7031 0 178 76
-7.4219 -4.1406 -1.0156 0 161 93
-7.4219 -3.9844 -1.1719 0 153 101
-7.4219 -3.8281 -1.1719 0 153 101
-7.4219 -4.2969 -0.7031 0 178 76
-7.4219 -4.1406 -0.7031 0 178 76
-7.4219 -3.8281 -0.7031 0 178 76
-6.4844 -4.7656 -0.5469 0 186 68
-6.4844 -4.6094 -0.5469 0 186 68
-6.0156 -4.6094 -0.7031 0 178 76
-7.2656 -3.6719 -1.1719 0 153 101
-7.4219 -3.5156 -1.1719 0 153 101
-7.2656 -3.5156 -1.1719 0 153 101
-7.4219 -3.6719 -1.0156 0 161 93
-7.4219 -3.5156 -1.0156 0 161 93
-6.9531 -3.5156 -1.1719 0 153 101
-7.2656 -3.3594 -1.1719 0 153 101
-7.4219 -3.2031 -1.1719 0 153 101
-7.2656 -3.2031 -1.1719 0 153 101
-7.4219 -3.6719 -0.8594 0 170 85
-7.4219 -3.5156 -0.8594 0 170 85
-7.2656 -3.6719 -0.7031 0 178 76
-7.2656 -3.5156 -0.7031 0 178 76
-6.9531 -3.5156 -0.7031 0 178 76
-7.4219 -3.2031 -0.8594 0 170 85
-7.2656 -3.2031 -0.8594 0 170 85
-6.7969 -3.6719 -1.1719 0 153 101
-6.6406 -3.6719 -1.1719 0 153 101
-6.6406 -3.5156 -1.1719 0 153 101
-6.7969 -3.3594 -1.1719 0 153 101
-6.7969 -3.2031 -1.1719 0 153 101
-6.6406 -3.2031 -1.1719 0 153 101
-6.4844 -3.3594 -1.1719 0 153 101
-6.4844 -3.2031 -1.1719 0 153 101
-7.2656 -3.0469 -1.0156 0 161 93
-7.4219 -2.8906 -1.0156 0 161 93
-7.2656 -2.8906 -1.0156 0 161 93
-6.9531 -3.0469 -1.1719 0 153 101
-7.2656 -2.5781 -1.0156 0 161 93
-7.1094 -2.5781 -1.0156 0 161 93
-7.4219 -3.0469 -0.8594 0 170 85
-7.2656 -3.0469 -0.8594 0 170 85
-7.2656 -2.8906 -0.8594 0 170 85
-7.2656 -3.0469 -0.7031 0 178 76
-7.4219 -2.8906 -0.7031 0 178 76
-7.2656 -2.7344 -0.8594 0 170 85
-7.4219 -2.5781 -0.8594 0 170 85
-7.4219 -2.7344 -0.7031 0 178 76
-7.4219 -2.5781 -0.7031 0 178 76
-7.1094 -2.5781 -0.8594 0 170 85
-6.6406 -3.0469 -1.1719 0 153 101
-6.4844 -2.8906 -1.1719 0 153 101
-6.7969 -2.7344 -1.0156 0 161 93
-6.7969 -2.5781 -1.0156 0 161 93
-6.6406 -2.5781 -1.0156 0 161 93
-6.3281 -2.5781 -1.0156 0 161 93
-7.2656 -3.3594 -0.5469 0 186 68
-7.1094 -3.2031 -0.5469 0 186 68
-7.4219 -3.0469 -0.5469 0 186 68
-7.4219 -2.8906 -0.5469 0 186 68
-7.1094 -3.0469 -0.5469 0 186 68
-7.4219 -2.7344 -0.5469 0 186 68
-7.4219 -2.5781 -0.5469 0 186 68
-7.2656 -2.5781 -0.5469 0 186 68
-6.1719 -2.7344 -1.0156 0 161 93
-7.5781 -2.4219 -0.7031 0 178 76
-7.5781 -2.2656 -0.7031 0 178 76
-7.5781 -2.1094 -0.7031 0 178 76
-7.5781 -2.4219 -0.5469 0 186 68
-7.5781 -2.2656 -0.3906 0 194 60
-7.5781 -1.9531 -0.5469 0 186 68
-7.5781 -2.1094 -0.3906 0 194 60
-7.5781 -1.9531 -0.3906 0 194 60
-7.5781 -1.7969 -0.3906 0 194 60
-7.5781 -1.6406 -0.3906 0 194 60
-7.5781 -1.4844 -0.3906 0 194 60
-7.5781 -1.3281 -0.3906 0 194 60
-7.2656 -2.4219 -1.0156 0 161 93
-7.1094 -2.4219 -1.0156 0 161 93
-7.4219 -2.4219 -0.8594 0 170 85
-7.2656 -2.2656 -0.8594 0 170 85
-7.4219 -2.4219 -0.7031 0 178 76
-7.2656 -2.4219 -0.7031 0 178 76
-7.2656 -2.2656 -0.7031 0 178 76
-7.1094 -2.2656 -0.8594 0 170 85
-7.2656 -2.1094 -0.8594 0 170 85
-7.2656 -1.9531 -0.8594 0 170 85
-7.4219 -2.1094 -0.7031 0 178 76
-7.2656 -2.1094 -0.7031 0 178 76
-7.4219 -1.9531 -0.7031 0 178 76
-7.2656 -1.9531 -0.7031 0 178 76
-7.1094 -2.1094 -0.8594 0 170 85
-7.1094 -1.9531 -0.8594 0 170 85
-6.7969 -2.4219 -1.0156 0 161 93
-6.6406 -2.4219 -1.0156 0 161 93
-6.7969 -2.2656 -1.0156 0 161 93
-6.6406 -2.2656 -1.0156 0 161 93
-6.3281 -2.4219 -1.0156 0 161 93
-6.3281 -2.2656 -1.0156 0 161 93
-6.6406 -2.1094 -1.0156 0 161 93
-6.6406 -1.9531 -1.0156 0 161 93
-6.3281 -2.1094 -1.0156 0 161 93
-6.3281 -1.9531 -1.0156 0 161 93
-6.7969 -1.9531 -0.8594 0 170 85
-7.2656 -1.7969 -0.8594 0 170 85
-7.2656 -1.6406 -0.8594 0 170 85
-7.4219 -1.7969 -0.7031 0 178 76
-7.2656 -1.7969 -0.7031 0 178 76
-7.1094 -1.7969 -0.8594 0 170 85
-7.1094 -1.6406 -0.8594 0 170 85
-7.1094 -1.6406 -0.7031 0 178 76
-7.2656 -1.4844 -0.8594 0 170 85
-7.2656 -1.3281 -0.7031 0 178 76
-7.1094 -1.4844 -0.8594 0 170 85
-7.1094 -1.4844 -0.7031 0 178 76
-7.1094 -1.3281 -0.7031 0 178 76
-6.7969 -1.7969 -1.0156 0 161 93
-6.4844 -1.7969 -1.0156 0 161 93
-6.7969 -1.7969 -0.8594 0 170 85
-6.6406 -1.7969 -0.8594 0 170 85
-6.7969 -1.6406 -0.8594 0 170 85
-6.6406 -1.6406 -0.8594 0 170 85
-6.6406 -1.4844 -0.8594 0 170 85
-6.6406 -1.3281 -0.8594 0 170 85
-6.4844 -1.4844 -0.8594 0 170 85
-6.4844 -1.3281 -0.8594 0 170 85
-7.4219 -2.4219 -0.5469 0 186 68
-7.2656 -2.4219 -0.5469 0 186 68
-7.4219 -2.2656 -0.5469 0 186 68
-7.2656 -2.2656 -0.3906 0 194 60
-7.4219 -2.1094 -0.5469 0 186 68
-7.2656 -1.9531 -0.5469 0 186 68
-7.2656 -2.1094 -0.3906 0 194 60
-7.2656 -1.9531 -0.3906 0 194 60
-7.4219 -1.7969 -0.5469 0 186 68
-7.2656 -1.7969 -0.5469 0 186 68
-7.4219 -1.6406 -0.5469 0 186 68
-7.2656 -1.6406 -0.5469 0 186 68
-7.4219 -1.7969 -0.3906 0 194 60
-7.2656 -1.7969 -0.3906 0 194 60
-7.4219 -1.6406 -0.3906 0 194 60
-7.2656 -1.6406 -0.3906 0 194 60
-7.1094 -1.7969 -0.3906 0 194 60
-7.4219 -1.4844 -0.5469 0 186 68
-7.2656 -1.4844 -0.5469 0 186 68
-7.4219 -1.3281 -0.5469 0 186 68
-7.2656 -1.3281 -0.5469 0 186 68
-7.4219 -1.4844 -0.3906 0 194 60
-7.4219 -1.3281 -0.3906 0 194 60
-7.1094 -1.4844 -0.3906 0 194 60
-6.9531 -1.4844 -0.3906 0 194 60
-7.4219 -1.3281 -0.2344 0 202 52
-6.9531 -1.3281 -0.2344 0 202 52
-7.1094 -1.1719 -0.7031 0 178 76
-7.1094 -1.0156 -0.7031 0 178 76
-6.9531 -1.0156 -0.7031 0 178 76
-7.1094 -0.8594 -0.7031 0 178 76
-6.9531 -0.8594 -0.7031 0 178 76
-7.1094 -0.7031 -0.7031 0 178 76
-6.9531 -0.7031 -0.7031 0 178 76
-6.6406 -1.1719 -0.8594 0 170 85
-6.6406 -1.0156 -0.8594 0 170 85
-6.6406 -1.0156 -0.7031 0 178 76
-6.4844 -1.1719 -0.8594 0 170 85
-6.7969 -0.8594 -0.7031 0 178 76
-6.6406 -0.8594 -0.7031 0 178 76
-6.7969 -0.7031 -0.7031 0 178 76
-6.4844 -0.7031 -0.7031 0 178 76
-7.1094 -0.5469 -0.7031 0 178 76
-6.9531 -0.5469 -0.7031 0 178 76
-6.7969 -0.5469 -0.7031 0 178 76
-6.7969 -0.3906 -0.7031 0 178 76
-6.6406 -0.3906 -0.7031 0 178 76
-6.4844 -0.5469 -0.7031 0 178 76
-6.3281 -0.5469 -0.7031 0 178 76
-6.4844 -0.3906 -0.7031 0 178 76
-6.3281 -0.3906 -0.7031 0 178 76
-6.6406 -0.2344 -0.7031 0 178 76
-6.6406 -0.0781 -0.7031 0 178 76
-6.4844 -0.2344 -0.7031 0 178 76
-6.3281 -0.2344 -0.7031 0 178 76
-6.4844 -0.0781 -0.7031 0 178 76
-6.3281 -0.0781 -0.7031 0 178 76
-7.2656 -1.1719 -0.5469 0 186 68
-7.2656 -1.0156 -0.5469 0 186 68
-7.4219 -1.1719 -0.3906 0 194 60
-7.4219 -1.0156 -0.3906 0 194 60
-7.2656 -1.0156 -0.3906 0 194 60
-7.1094 -1.1719 -0.5469 0 186 68
-7.1094 -1.0156 -0.5469 0 186 68
-7.1094 -1.1719 -0.3906 0 194 60
-7.2656 -0.8594 -0.5469 0 186 68
-7.2656 -0.7031 -0.5469 0 186 68
-7.4219 -0.8594 -0.3906 0 194 60
-7.2656 -0.8594 -0.3906 0 194 60
-7.4219 -0.7031 -0.3906 0 194 60
-7.2656 -0.7031 -0.3906 0 194 60
-7.1094 -0.7031 -0.5469 0 186 68
-7.1094 -0.8594 -0.3906 0 194 60
-7.1094 -0.7031 -0.3906 0 194 60
-7.2656 -1.1719 -0.2344 0 202 52
-7.2656 -1.0156 -0.2344 0 202 52
-6.9531 -1.1719 -0.2344 0 202 52
-6.9531 -1.0156 -0.2344 0 202 52
-7.4219 -0.8594 -0.2344 0 202 52
-7.2656 -0.7031 -0.2344 0 202 52
-7.1094 -0.8594 -0.2344 0 202 52
-7.1094 -0.7031 -0.2344 0 202 52
-7.4219 -0.5469 -0.3906 0 194 60
-7.2656 -0.5469 -0.3906 0 194 60
-7.4219 -0.3906 -0.3906 0 194 60
-7.2656 -0.3906 -0.3906 0 194 60
-7.1094 -0.5469 -0.5469 0 186 68
-7.1094 -0.3906 -0.5469 0 186 68
-6.9531 -0.3906 -0.5469 0 186 68
-7.1094 -0.5469 -0.3906 0 194 60
-7.1094 -0.3906 -0.3906 0 194 60
-6.9531 -0.3906 -0.3906 0 194 60
-7.2656 -0.2344 -0.3906 0 194 60
-7.2656 -0.0781 -0.3906 0 194 60
-7.1094 -0.2344 -0.5469 0 186 68
-6.9531 -0.2344 -0.5469 0 186 68
-7.1094 -0.0781 -0.5469 0 186 68
-6.9531 -0.0781 -0.5469 0 186 68
-7.1094 -0.2344 -0.3906 0 194 60
-7.1094 -0.0781 -0.3906 0 194 60
-6.9531 -0.0781 -0.3906 0 194 60
-7.2656 -0.5469 -0.2344 0 202 52
-7.2656 -0.3906 -0.2344 0 202 52
-7.1094 -0.5469 -0.2344 0 202 52
-7.1094 -0.3906 -0.2344 0 202 52
-7.2656 -0.2344 -0.2344 0 202 52
-7.2656 -0.0781 -0.2344 0 202 52
-7.1094 -0.2344 -0.2344 0 202 52
-7.1094 -0.0781 -0.2344 0 202 52
-6.9531 -0.2344 -0.0781 0 210 44
-6.9531 -0.0781 -0.0781 0 210 44
-6.6406 -0.0781 -0.5469 0 186 68
-6.1719 -1.1719 -0.8594 0 170 85
-6.1719 -1.0156 -0.8594 0 170 85
-2.5781 -3.3594 -1.4844 0 137 117
-2.5781 -3.2031 -1.4844 0 137 117
-2.8906 -3.0469 -1.3281 0 145 109
-2.8906 -2.8906 -1.3281 0 145 109
-2.7344 -3.0469 -1.4844 0 137 117
-2.5781 -2.8906 -1.4844 0 137 117
-2.7344 -3.0469 -1.3281 0 145 109
-2.8906 -2.7344 -1.3281 0 145 109
-3.0469 -2.5781 -1.3281 0 145 109
-2.8906 -2.5781 -1.3281 0 145 109
-2.5781 -2.5781 -1.4844 0 137 117
-1.3281 -4.4531 -1.6406 0 129 125
-2.1094 -3.8281 -1.6406 0 129 125
-1.6406 -4.1406 -1.6406 0 129 125
-1.4844 -4.2969 -1.6406 0 129 125
-1.3281 -4.2969 -1.6406 0 129 125
-1.4844 -4.1406 -1.6406 0 129 125
-1.3281 -4.1406 -1.6406 0 129 125
-1.6406 -3.8281 -1.6406 0 129 125
-1.4844 -3.8281 -1.6406 0 129 125
-1.3281 -3.8281 -1.6406 0 129 125
-1.6406 -4.1406 -1.4844 0 137 117
-1.4844 -4.1406 -1.4844 0 137 117
-1.6406 -3.9844 -1.4844 0 137 117
-1.1719 -4.4531 -1.6406 0 129 125
-0.2344 -4.6094 -1.7969 0 121 133
-0.0781 -4.6094 -1.7969 0 121 133
-0.2344 -4.4531 -1.7969 0 121 133
-0.0781 -4.4531 -1.7969 0 121 133
-0.0781 -4.4531 -1.6406 0 129 125
-1.0156 -4.2969 -1.7969 0 121 133
-1.0156 -4.1406 -1.7969 0 121 133
-1.1719 -4.2969 -1.6406 0 129 125
-0.8594 -4.2969 -1.7969 0 121 133
-0.7031 -4.2969 -1.7969 0 121 133
-0.7031 -4.1406 -1.7969 0 121 133
-1.1719 -3.9844 -1.6406 0 129 125
-1.0156 -3.9844 -1.6406 0 129 125
-1.1719 -3.8281 -1.6406 0 129 125
-1.0156 -3.8281 -1.6406 0 129 125
-0.8594 -3.9844 -1.6406 0 129 125
-0.7031 -3.9844 -1.6406 0 129 125
-0.5469 -4.2969 -1.7969 0 121 133
-0.3906 -4.2969 -1.7969 0 121 133
-0.5469 -4.1406 -1.7969 0 121 133
-0.2344 -4.2969 -1.7969 0 121 133
-0.0781 -4.2969 -1.7969 0 121 133
-0.2344 -4.1406 -1.7969 0 121 133
-0.5469 -3.9844 -1.6406 0 129 125
-0.3906 -3.8281 -1.6406 0 129 125
-0.2344 -3.9844 -1.7969 0 121 133
-0.0781 -3.9844 -1.6406 0 129 125
-0.0781 -3.8281 -1.6406 0 129 125
-2.2656 -3.6719 -1.6406 0 129 125
-2.1094 -3.6719 -1.6406 0 129 125
-1.9531 -3.3594 -1.6406 0 129 125
-2.4219 -3.5156 -1.4844 0 137 117
-2.2656 -3.5156 -1.4844 0 137 117
-2.4219 -3.3594 -1.4844 0 137 117
-2.1094 -3.3594 -1.4844 0 137 117
-1.9531 -3.3594 -1.4844 0 137 117
-1.6406 -3.5156 -1.6406 0 129 125
-1.4844 -3.5156 -1.6406 0 129 125
-1.3281 -3.5156 -1.6406 0 129 125
-1.7969 -3.3594 -1.4844 0 137 117
-1.6406 -3.2031 -1.4844 0 137 117
-1.4844 -3.3594 -1.4844 0 137 117
-1.4844 -3.2031 -1.4844 0 137 117
-1.3281 -3.2031 -1.4844 0 137 117
-2.2656 -3.0469 -1.4844 0 137 117
-2.4219 -2.8906 -1.4844 0 137 117
-2.2656 -2.8906 -1.4844 0 137 117
-2.1094 -3.0469 -1.4844 0 137 117
-1.9531 -3.0469 -1.4844 0 137 117
-2.4219 -2.7344 -1.4844 0 137 117
-2.4219 -2.5781 -1.4844 0 137 117
-2.2656 -2.5781 -1.4844 0 137 117
-2.1094 -2.7344 -1.4844 0 137 117
-1.9531 -2.7344 -1.4844 0 137 117
-2.1094 -2.5781 -1.4844 0 137 117
-1.7969 -3.0469 -1.4844 0 137 117
-1.6406 -3.0469 -1.4844 0 137 117
-1.7969 -2.8906 -1.4844 0 137 117
-1.6406 -2.8906 -1.4844 0 137 117
-1.3281 -3.0469 -1.4844 0 137 117
-1.4844 -2.8906 -1.4844 0 137 117
-1.7969 -2.7344 -1.4844 0 137 117
-1.6406 -2.5781 -1.4844 0 137 117
-1.3281 -2.7344 -1.4844 0 137 117
-1.4844 -2.5781 -1.4844 0 137 117
-1.3281 -2.5781 -1.4844 0 137 117
-1.1719 -3.6719 -1.6406 0 129 125
-1.1719 -3.5156 -1.6406 0 129 125
-1.0156 -3.5156 -1.6406 0 129 125
-0.8594 -3.6719 -1.6406 0 129 125
-0.7031 -3.6719 -1.6406 0 129 125
-0.8594 -3.5156 -1.6406 0 129 125
-0.7031 -3.3594 -1.6406 0 129 125
-0.7031 -3.2031 -1.6406 0 129 125
-1.1719 -3.2031 -1.4844 0 137 117
-1.0156 -3.2031 -1.4844 0 137 117
-0.8594 -3.2031 -1.4844 0 137 117
-0.5469 -3.5156 -1.6406 0 129 125
-0.3906 -3.5156 -1.6406 0 129 125
-0.2344 -3.6719 -1.6406 0 129 125
-0.2344 -3.5156 -1.6406 0 129 125
-0.0781 -3.5156 -1.6406 0 129 125
-0.5469 -3.2031 -1.4844 0 137 117
-0.3906 -3.2031 -1.4844 0 137 117
-1.1719 -2.8906 -1.4844 0 137 117
-1.0156 -2.8906 -1.4844 0 137 117
-0.8594 -2.8906 -1.4844 0 137 117
-0.7031 -2.8906 -1.4844 0 137 117
-1.1719 -2.5781 -1.4844 0 137 117
-0.7031 -2.5781 -1.4844 0 137 117
-0.3906 -3.0469 -1.4844 0 137 117
-0.3906 -2.8906 -1.4844 0 137 117
-0.2344 -3.0469 -1.4844 0 137 117
-0.0781 -3.0469 -1.4844 0 137 117
-0.0781 -2.8906 -1.4844 0 137 117
-0.5469 -2.7344 -1.4844 0 137 117
-0.3906 -2.7344 -1.4844 0 137 117
-0.2344 -2.7344 -1.4844 0 137 117
-0.0781 -2.5781 -1.4844 0 137 117
-3.2031 -2.4219 -1.3281 0 145 109
-3.2031 -2.2656 -1.3281 0 145 109
-3.0469 -2.4219 -1.3281 0 145 109
-2.8906 -2.2656 -1.3281 0 145 109
-2.7344 -2.4219 -1.4844 0 137 117
-2.7344 -2.4219 -1.3281 0 145 109
-2.5781 -2.4219 -1.3281 0 145 109
-2.7344 -2.2656 -1.3281 0 145 109
-2.8906 -2.1094 -1.3281 0 145 109
-3.0469 -1.9531 -1.3281 0 145 109
-2.8906 -1.9531 -1.3281 0 145 109
-2.7344 -2.1094 -1.4844 0 137 117
-2.5781 -2.1094 -1.4844 0 137 117
-2.5781 -2.1094 -1.3281 0 145 109
-2.7344 -1.9531 -1.3281 0 145 109
-2.5781 -1.9531 -1.3281 0 145 109
-3.2031 -1.7969 -1.3281 0 145 109
-3.2031 -1.6406 -1.3281 0 145 109
-3.2031 -1.4844 -1.3281 0 145 109
-3.0469 -1.7969 -1.3281 0 145 109
-2.8906 -1.7969 -1.3281 0 145 109
-3.0469 -1.6406 -1.3281 0 145 109
-2.8906 -1.6406 -1.3281 0 145 109
-2.7344 -1.7969 -1.3281 0 145 109
-2.5781 -1.7969 -1.3281 0 145 109
-2.7344 -1.6406 -1.3281 0 145 109
-2.5781 -1.6406 -1.3281 0 145 109
-3.0469 -1.4844 -1.3281 0 145 109
-2.8906 -1.4844 -1.3281 0 145 109
-3.0469 -1.3281 -1.3281 0 145 109
-2.8906 -1.3281 -1.3281 0 145 109
-2.7344 -1.4844 -1.3281 0 145 109
-2.5781 -1.4844 -1.3281 0 145 109
-2.7344 -1.3281 -1.3281 0 145 109
-2.5781 -1.3281 -1.3281 0 145 109
-3.2031 -1.0156 -1.3281 0 145 109
-2.8906 -1.1719 -1.3281 0 145 109
-3.0469 -1.0156 -1.3281 0 145 109
-2.7344 -1.1719 -1.3281 0 145 109
-2.5781 -1.1719 -1.3281 0 145 109
-3.0469 -0.7031 -1.3281 0 145 109
-2.8906 -0.7031 -1.3281 0 145 109
-2.7344 -0.8594 -1.3281 0 145 109
-2.5781 -0.8594 -1.3281 0 145 109
-2.7344 -0.7031 -1.3281 0 145 109
-2.8906 -0.3906 -1.3281 0 145 109
-2.7344 -0.5469 -1.3281 0 145 109
-2.5781 -0.5469 -1.3281 0 145 109
-2.7344 -0.3906 -1.3281 0 145 109
-2.7344 -0.2344 -1.3281 0 145 109
-2.5781 -0.2344 -1.3281 0 145 109
-3.2031 -2.2656 -1.1719 0 153 101
-3.5156 -1.9531 -1.1719 0 153 101
-3.3594 -2.1094 -1.1719 0 153 101
-3.3594 -1.9531 -1.1719 0 153 101
-3.5156 -1.7969 -1.1719 0 153 101
-3.5156 -1.6406 -1.1719 0 153 101
-3.6719 -1.6406 -1.0156 0 161 93
-3.5156 -1.4844 -1.1719 0 153 101
-3.6719 -1.3281 -1.1719 0 153 101
-3.5156 -1.3281 -1.1719 0 153 101
-3.6719 -1.3281 -1.0156 0 161 93
-3.3594 -1.3281 -1.1719 0 153 101
-3.2031 -1.3281 -1.1719 0 153 101
-3.8281 -1.0156 -1.1719 0 153 101
-3.8281 -1.1719 -1.0156 0 161 93
-3.8281 -1.0156 -1.0156 0 161 93
-3.8281 -0.8594 -1.1719 0 153 101
-3.8281 -0.8594 -1.0156 0 161 93
-3.8281 -0.7031 -1.0156 0 161 93
-3.9844 -0.5469 -1.0156 0 161 93
-3.8281 -0.5469 -1.0156 0 161 93
-3.9844 -0.3906 -1.0156 0 161 93
-3.8281 -0.3906 -1.0156 0 161 93
-4.1406 -0.0781 -1.0156 0 161 93
-3.9844 -0.2344 -1.0156 0 161 93
-3.8281 -0.2344 -1.0156 0 161 93
-3.9844 -0.0781 -1.0156 0 161 93
-3.6719 -1.1719 -1.0156 0 161 93
-3.2031 -1.1719 -1.1719 0 153 101
-3.3594 -1.0156 -1.1719 0 153 101
-3.2031 -1.0156 -1.1719 0 153 101
-3.5156 -0.8594 -1.1719 0 153 101
-3.3594 -0.8594 -1.1719 0 153 101
-3.2031 -0.8594 -1.1719 0 153 101
-3.3594 -0.7031 -1.1719 0 153 101
-3.0469 -1.1719 -1.1719 0 153 101
-2.8906 -1.0156 -1.1719 0 153 101
-3.5156 -0.5469 -1.1719 0 153 101
-3.5156 -0.3906 -1.1719 0 153 101
-3.2031 -0.5469 -1.1719 0 153 101
-3.2031 -0.3906 -1.1719 0 153 101
-3.5156 -0.0781 -1.1719 0 153 101
-3.3594 -0.2344 -1.1719 0 153 101
-3.3594 -0.0781 -1.1719 0 153 101
-3.2031 -0.0781 -1.1719 0 153 101
-3.0469 -0.5469 -1.1719 0 153 101
-2.8906 -0.3906 -1.1719 0 153 101
-2.7344 -0.3906 -1.1719 0 153 101
-2.5781 -0.3906 -1.1719 0 153 101
-3.0469 -0.2344 -1.1719 0 153 101
-2.8906 -0.2344 -1.1719 0 153 101
-3.0469 -0.0781 -1.1719 0 153 101
-2.7344 -0.0781 -1.1719 0 153 101
-2.4219 -2.2656 -1.4844 0 137 117
-2.2656 -2.2656 -1.4844 0 137 117
-2.1094 -2.4219 -1.4844 0 137 117
-1.9531 -2.4219 -1.4844 0 137 117
-2.1094 -2.2656 -1.4844 0 137 117
-1.9531 -2.2656 -1.4844 0 137 117
-2.4219 -2.1094 -1.4844 0 137 117
-2.2656 -1.9531 -1.4844 0 137 117
-2.4219 -2.1094 -1.3281 0 145 109
-2.2656 -2.1094 -1.3281 0 145 109
-2.4219 -1.9531 -1.3281 0 145 109
-2.1094 -1.9531 -1.4844 0 137 117
-2.1094 -2.1094 -1.3281 0 145 109
-1.9531 -1.9531 -1.3281 0 145 109
-1.7969 -2.4219 -1.4844 0 137 117
-1.6406 -2.4219 -1.4844 0 137 117
-1.7969 -2.2656 -1.4844 0 137 117
-1.6406 -2.2656 -1.4844 0 137 117
-1.4844 -2.4219 -1.4844 0 137 117
-1.3281 -2.4219 -1.4844 0 137 117
-1.7969 -2.1094 -1.4844 0 137 117
-1.6406 -2.1094 -1.4844 0 137 117
-1.7969 -1.9531 -1.3281 0 145 109
-1.4844 -2.1094 -1.4844 0 137 117
-1.3281 -2.1094 -1.4844 0 137 117
-2.4219 -1.7969 -1.3281 0 145 109
-2.2656 -1.7969 -1.3281 0 145 109
-2.4219 -1.6406 -1.3281 0 145 109
-2.2656 -1.6406 -1.3281 0 145 109
-1.9531 -1.7969 -1.4844 0 137 117
-1.9531 -1.7969 -1.3281 0 145 109
-2.1094 -1.6406 -1.3281 0 145 109
-1.9531 -1.6406 -1.3281 0 145 109
-2.4219 -1.4844 -1.3281 0 145 109
-2.4219 -1.3281 -1.3281 0 145 109
-2.2656 -1.3281 -1.3281 0 145 109
-2.1094 -1.3281 -1.3281 0 145 109
-1.7969 -1.7969 -1.3281 0 145 109
-1.6406 -1.7969 -1.3281 0 145 109
-1.7969 -1.6406 -1.3281 0 145 109
-1.6406 -1.6406 -1.3281 0 145 109
-1.3281 -1.7969 -1.4844 0 137 117
-1.4844 -1.7969 -1.3281 0 145 109
-1.3281 -1.7969 -1.3281 0 145 109
-1.4844 -1.6406 -1.3281 0 145 109
-1.4844 -1.4844 -1.4844 0 137 117
-1.3281 -1.4844 -1.4844 0 137 117
-1.1719 -2.4219 -1.4844 0 137 117
-1.0156 -2.4219 -1.4844 0 137 117
-1.0156 -2.2656 -1.4844 0 137 117
-0.8594 -2.4219 -1.4844 0 137 117
-0.7031 -2.4219 -1.4844 0 137 117
-0.8594 -2.2656 -1.4844 0 137 117
-1.1719 -2.1094 -1.4844 0 137 117
-1.0156 -2.1094 -1.4844 0 137 117
-1.1719 -1.9531 -1.4844 0 137 117
-1.0156 -1.9531 -1.4844 0 137 117
-0.8594 -2.1094 -1.4844 0 137 117
-0.7031 -2.1094 -1.4844 0 137 117
-0.8594 -1.9531 -1.4844 0 137 117
-0.7031 -1.9531 -1.4844 0 137 117
-0.5469 -2.4219 -1.4844 0 137 117
-0.3906 -2.4219 -1.4844 0 137 117
-0.5469 -2.2656 -1.4844 0 137 117
-0.3906 -2.2656 -1.4844 0 137 117
-0.2344 -2.4219 -1.4844 0 137 117
-0.2344 -2.2656 -1.4844 0 137 117
-0.0781 -2.2656 -1.4844 0 137 117
-0.5469 -2.1094 -1.4844 0 137 117
-0.3906 -2.1094 -1.4844 0 137 117
-0.3906 -1.9531 -1.4844 0 137 117
-0.2344 -2.1094 -1.4844 0 137 117
-0.0781 -2.1094 -1.4844 0 137 117
-1.1719 -1.7969 -1.4844 0 137 117
-1.0156 -1.7969 -1.4844 0 137 117
-0.7031 -1.7969 -1.4844 0 137 117
-0.8594 -1.6406 -1.4844 0 137 117
-0.7031 -1.6406 -1.4844 0 137 117
-1.1719 -1.3281 -1.4844 0 137 117
-1.0156 -1.3281 -1.4844 0 137 117
-0.8594 -1.3281 -1.4844 0 137 117
-0.5469 -1.7969 -1.4844 0 137 117
-2.2656 -1.1719 -1.3281 0 145 109
-2.2656 -1.0156 -1.3281 0 145 109
-2.1094 -1.1719 -1.3281 0 145 109
-1.9531 -1.1719 -1.3281 0 145 109
-2.4219 -0.8594 -1.3281 0 145 109
-2.2656 -0.8594 -1.3281 0 145 109
-2.4219 -0.7031 -1.3281 0 145 109
-2.2656 -0.7031 -1.3281 0 145 109
-2.1094 -0.8594 -1.3281 0 145 109
-1.9531 -0.8594 -1.3281 0 145 109
-2.1094 -0.7031 -1.3281 0 145 109
-1.9531 -0.7031 -1.3281 0 145 109
-1.6406 -1.1719 -1.4844 0 137 117
-1.7969 -1.1719 -1.3281 0 145 109
-1.6406 -1.1719 -1.3281 0 145 109
-1.7969 -1.0156 -1.3281 0 145 109
-1.6406 -1.0156 -1.3281 0 145 109
-1.4844 -1.1719 -1.4844 0 137 117
-1.3281 -1.1719 -1.4844 0 137 117
-1.4844 -1.0156 -1.3281 0 145 109
-1.3281 -1.0156 -1.3281 0 145 109
-1.7969 -0.8594 -1.3281 0 145 109
-1.6406 -0.8594 -1.3281 0 145 109
-1.7969 -0.7031 -1.3281 0 145 109
-1.6406 -0.7031 -1.3281 0 145 109
-1.4844 -0.8594 -1.4844 0 137 117
-1.4844 -0.8594 -1.3281 0 145 109
-1.4844 -0.7031 -1.3281 0 145 109
-1.3281 -0.7031 -1.3281 0 145 109
-2.4219 -0.5469 -1.3281 0 145 109
-2.2656 -0.5469 -1.3281 0 145 109
-2.1094 -0.5469 -1.3281 0 145 109
-1.9531 -0.5469 -1.3281 0 145 109
-2.1094 -0.3906 -1.3281 0 145 109
-1.9531 -0.3906 -1.3281 0 145 109
-2.4219 -0.2344 -1.3281 0 145 109
-2.2656 -0.2344 -1.3281 0 145 109
-2.2656 -0.0781 -1.3281 0 145 109
-2.1094 -0.2344 -1.3281 0 145 109
-1.9531 -0.2344 -1.3281 0 145 109
-1.7969 -0.5469 -1.3281 0 145 109
-1.6406 -0.5469 -1.3281 0 145 109
-1.7969 -0.3906 -1.3281 0 145 109
-1.6406 -0.3906 -1.3281 0 145 109
-1.1719 -1.1719 -1.4844 0 137 117
-1.0156 -1.1719 -1.4844 0 137 117
-0.8594 -1.1719 -1.3281 0 145 109
-1.1719 -0.8594 -1.3281 0 145 109
-1.0156 -0.8594 -1.3281 0 145 109
-1.1719 -0.7031 -1.3281 0 145 109
-1.0156 -0.7031 -1.3281 0 145 109
-2.4219 -0.2344 -1.1719 0 153 101
-2.4219 -0.0781 -1.1719 0 153 101
-0.7031 -0.7031 -0.3906 0 194 60
-0.3906 -1.1719 -0.3906 0 194 60
-0.5469 -1.0156 -0.3906 0 194 60
-0.2344 -1.0156 -0.3906 0 194 60
-0.5469 -0.8594 -0.3906 0 194 60
-0.3906 -0.8594 -0.3906 0 194 60
-0.7031 -0.5469 -0.3906 0 194 60
-0.8594 -0.3906 -0.3906 0 194 60
-1.0156 -0.0781 -0.2344 0 202 52
-0.8594 -0.2344 -0.2344 0 202 52
-19.9219 -4.7656 5.5469 246 8 0
-19.7656 -3.9844 5.0781 222 32 0
-19.4531 -3.5156 5.0781 222 32 0
-16.1719 -3.6719 5.0781 222 32 0
-18.5156 -1.4844 5.2344 230 24 0
-18.3594 -1.7969 5.3906 238 16 0
-17.7344 -1.7969 5.2344 230 24 0
-18.2031 -1.0156 5.3906 238 16 0
-18.2031 -0.7031 5.3906 238 16 0
-17.7344 -1.1719 5.2344 230 24 0
-18.3594 -0.3906 5.2344 230 24 0
-18.6719 -0.2344 5.0781 222 32 0
-17.5781 -0.5469 5.0781 222 32 0
-17.5781 -0.2344 5.0781 222 32 0
-17.5781 -0.0781 5.0781 222 32 0
-16.9531 -1.9531 5.2344 230 24 0
-17.4219 -1.4844 5.0781 222 32 0
-17.2656 -1.4844 5.0781 222 32 0
-17.4219 -0.8594 5.0781 222 32 0
-17.4219 -0.7031 5.0781 222 32 0
-17.1094 -0.8594 5.0781 222 32 0
-17.1094 -0.7031 5.0781 222 32 0
-17.2656 -0.3906 5.0781 222 32 0
0.3906 -19.9219 -3.8281 0 16 238
0.7031 -19.6094 -3.8281 0 16 238
0.8594 -19.1406 -3.8281 0 16 238
1.6406 -19.4531 -3.8281 0 16 238
1.7969 -18.9844 -3.8281 0 16 238
1.9531 -18.6719 -3.8281 0 16 238
0.0781 -18.9844 -3.6719 0 24 230
1.0156 -18.8281 -3.6719 0 24 230
0.2344 -18.5156 -3.6719 0 24 230
0.5469 -18.0469 -3.5156 0 32 222
0.7031 -17.5781 -3.5156 0 32 222
1.3281 -18.3594 -3.6719 0 24 230
1.3281 -17.8906 -3.6719 0 24 230
2.1094 -17.7344 -3.6719 0 24 230
0.8594 -17.2656 -3.5156 0 32 222
1.1719 -16.9531 -3.3594 0 40 214
0.0781 -16.7969 -3.5156 0 32 222
0.2344 -16.3281 -3.5156 0 32 222
1.4844 -17.4219 -3.5156 0 32 222
1.7969 -16.9531 -3.5156 0 32 222
2.2656 -17.2656 -3.5156 0 32 222
2.4219 -16.7969 -3.5156 0 32 222
0.3906 -15.7031 -3.3594 0 40 214
0.5469 -15.2344 -3.3594 0 40 214
1.7969 -16.1719 -3.3594 0 40 214
1.9531 -15.7031 -3.2031 0 48 206
2.1094 -15.2344 -3.2031 0 48 206
2.5781 -15.7031 -3.3594 0 40 214
2.7344 -15.2344 -3.2031 0 48 206
0.7031 -14.4531 -3.2031 0 48 206
0.0781 -14.7656 -3.0469 0 56 198
0.2344 -14.4531 -2.8906 0 64 190
0.3906 -14.2969 -3.0469 0 56 198
0.0781 -13.8281 -2.8906 0 64 190
0.3906 -13.9844 -2.8906 0 64 190
0.5469 -13.8281 -2.8906 0 64 190
0.8594 -13.9844 -3.0469 0 56 198
2.2656 -14.4531 -3.0469 0 56 198
2.4219 -13.9844 -2.8906 0 64 190
0.2344 -13.3594 -2.7344 0 72 182
0.5469 -13.2031 -2.7344 0 72 182
1.0156 -13.6719 -3.0469 0 56 198
0.7031 -13.3594 -2.8906 0 64 190
1.1719 -13.2031 -2.8906 0 64 190
0.0781 -13.0469 -2.7344 0 72 182
0.3906 -12.8906 -2.5781 0 80 174
0.0781 -12.5781 -2.7344 0 72 182
0.7031 -12.8906 -2.7344 0 72 182
0.8594 -12.8906 -2.7344 0 72 182
2.4219 -13.6719 -2.8906 0 64 190
1.3281 -12.8906 -2.8906 0 64 190
1.3281 -12.5781 -2.7344 0 72 182
1.4844 -12.5781 -2.7344 0 72 182
2.7344 -14.7656 -3.0469 0 56 198
2.8906 -14.2969 -3.0469 0 56 198
3.0469 -13.8281 -3.0469 0 56 198
2.5781 -13.3594 -2.8906 0 64 190
3.0469 -13.2031 -2.8906 0 64 190
2.7344 -12.8906 -2.7344 0 72 182
3.2031 -12.7344 -2.7344 0 72 182
0.0781 -12.4219 -2.7344 0 72 182
0.5469 -12.4219 -2.5781 0 80 174
0.0781 -12.1094 -2.5781 0 80 174
0.2344 -11.9531 -2.5781 0 80 174
0.8594 -12.4219 -2.5781 0 80 174
1.0156 -12.4219 -2.7344 0 72 182
0.7031 -12.1094 -2.5781 0 80 174
1.0156 -12.1094 -2.5781 0 80 174
1.1719 -12.1094 -2.5781 0 80 174
0.2344 -11.7969 -2.5781 0 80 174
0.2344 -11.6406 -2.5781 0 80 174
0.3906 -11.4844 -2.5781 0 80 174
1.1719 -11.7969 -2.5781 0 80 174
1.4844 -12.2656 -2.5781 0 80 174
1.6406 -11.9531 -2.7344 0 72 182
1.6406 -11.9531 -2.5781 0 80 174
1.6406 -11.6406 -2.5781 0 80 174
1.7969 -11.3281 -2.5781 0 80 174
2.2656 -11.4844 -2.5781 0 80 174
1.9531 -11.1719 -2.5781 0 80 174
2.4219 -11.1719 -2.5781 0 80 174
2.4219 -10.8594 -2.5781 0 80 174
2.7344 -12.4219 -2.7344 0 72 182
2.8906 -12.1094 -2.5781 0 80 174
2.8906 -11.9531 -2.5781 0 80 174
3.2031 -12.4219 -2.7344 0 72 182
3.3594 -12.1094 -2.7344 0 72 182
3.0469 -11.6406 -2.5781 0 80 174
3.3594 -11.7969 -2.5781 0 80 174
3.2031 -11.3281 -2.5781 0 80 174
3.5156 -11.4844 -2.5781 0 80 174
0.0781 -11.3281 -2.4219 0 89 165
0.3906 -11.4844 -2.4219 0 89 165
0.3906 -11.3281 -2.4219 0 89 165
0.8594 -11.6406 -2.4219 0 89 165
1.3281 -11.4844 -2.4219 0 89 165
1.7969 -11.3281 -2.4219 0 89 165
0.2344 -11.0156 -2.4219 0 89 165
0.5469 -11.1719 -2.4219 0 89 165
0.2344 -10.7031 -2.2656 0 97 157
0.5469 -10.8594 -2.4219 0 89 165
0.7031 -10.8594 -2.4219 0 89 165
0.5469 -10.0781 -2.2656 0 97 157
0.7031 -10.5469 -2.2656 0 97 157
0.8594 -10.5469 -2.2656 0 97 157
1.1719 -10.5469 -2.2656 0 97 157
0.8594 -10.2344 -2.2656 0 97 157
1.0156 -10.2344 -2.2656 0 97 157
1.4844 -11.1719 -2.4219 0 89 165
1.6406 -10.8594 -2.4219 0 89 165
1.9531 -11.0156 -2.4219 0 89 165
1.9531 -10.8594 -2.4219 0 89 165
2.1094 -10.8594 -2.4219 0 89 165
1.6406 -10.5469 -2.2656 0 97 157
1.7969 -10.3906 -2.2656 0 97 157
1.3281 -10.2344 -2.2656 0 97 157
1.3281 -10.0781 -2.1094 0 105 149
2.1094 -10.5469 -2.2656 0 97 157
2.2656 -10.3906 -2.2656 0 97 157
2.2656 -10.0781 -2.2656 0 97 157
2.5781 -10.7031 -2.4219 0 89 165
3.2031 -11.0156 -2.4219 0 89 165
3.5156 -11.0156 -2.4219 0 89 165
3.2031 -10.7031 -2.4219 0 89 165
3.5156 -10.7031 -2.4219 0 89 165
2.7344 -10.3906 -2.4219 0 89 165
2.7344 -10.2344 -2.4219 0 89 165
2.8906 -10.0781 -2.4219 0 89 165
3.3594 -10.3906 -2.4219 0 89 165
3.6719 -10.3906 -2.4219 0 89 165
3.3594 -10.2344 -2.2656 0 97 157
3.6719 -10.2344 -2.4219 0 89 165
3.9844 -10.3906 -2.4219 0 89 165
3.8281 -10.2344 -2.4219 0 89 165
3.8281 -10.0781 -2.2656 0 97 157
4.1406 -10.2344 -2.4219 0 89 165
1.0156 -9.9219 -2.2656 0 97 157
0.7031 -9.9219 -2.1094 0 105 149
1.1719 -9.7656 -2.1094 0 105 149
0.8594 -9.6094 -2.1094 0 105 149
1.1719 -9.4531 -2.1094 0 105 149
1.7969 -9.9219 -2.2656 0 97 157
1.4844 -9.7656 -2.1094 0 105 149
1.6406 -9.6094 -2.1094 0 105 149
2.4219 -9.9219 -2.2656 0 97 157
1.9531 -9.7656 -2.1094 0 105 149
2.1094 -9.4531 -2.1094 0 105 149
1.3281 -9.2969 -2.1094 0 105 149
1.4844 -9.1406 -2.1094 0 105 149
1.6406 -9.2969 -2.1094 0 105 149
2.1094 -9.2969 -2.1094 0 105 149
2.2656 -9.1406 -2.1094 0 105 149
1.9531 -8.9844 -1.9531 0 113 141
2.2656 -8.9844 -2.1094 0 105 149
2.1094 -8.5156 -1.9531 0 113 141
2.4219 -8.6719 -1.9531 0 113 141
2.8906 -9.7656 -2.2656 0 97 157
3.0469 -9.6094 -2.2656 0 97 157
3.0469 -9.4531 -2.2656 0 97 157
2.5781 -9.6094 -2.1094 0 105 149
3.5156 -9.9219 -2.2656 0 97 157
3.5156 -9.7656 -2.2656 0 97 157
2.5781 -9.2969 -2.1094 0 105 149
2.7344 -8.9844 -2.1094 0 105 149
2.7344 -8.8281 -1.9531 0 113 141
3.2031 -9.1406 -2.2656 0 97 157
3.2031 -8.9844 -2.2656 0 97 157
3.8281 -9.9219 -2.2656 0 97 157
3.9844 -9.7656 -2.2656 0 97 157
4.1406 -9.9219 -2.4219 0 89 165
4.2969 -9.7656 -2.4219 0 89 165
3.9844 -9.6094 -2.2656 0 97 157
4.2969 -9.4531 -2.2656 0 97 157
4.1406 -9.2969 -2.2656 0 97 157
4.2969 -9.2969 -2.2656 0 97 157
4.1406 -9.1406 -2.2656 0 97 157
4.1406 -8.9844 -2.1094 0 105 149
4.2969 -8.8281 -2.1094 0 105 149
4.4531 -9.1406 -2.2656 0 97 157
4.4531 -8.8281 -2.2656 0 97 157
2.8906 -8.5156 -1.9531 0 113 141
2.5781 -8.3594 -1.9531 0 113 141
2.7344 -8.2031 -1.9531 0 113 141
2.8906 -8.3594 -1.9531 0 113 141
3.0469 -8.2031 -1.9531 0 113 141
3.2031 -8.6719 -2.1094 0 105 149
3.3594 -8.5156 -2.1094 0 105 149
3.3594 -8.3594 -2.1094 0 105 149
3.5156 -8.2031 -2.1094 0 105 149
2.7344 -8.0469 -1.9531 0 113 141
3.0469 -8.0469 -1.9531 0 113 141
3.2031 -7.8906 -1.9531 0 113 141
3.5156 -8.0469 -2.1094 0 105 149
3.6719 -7.8906 -1.9531 0 113 141
3.2031 -7.7344 -1.9531 0 113 141
3.6719 -7.7344 -1.9531 0 113 141
3.6719 -7.5781 -1.9531 0 113 141
3.3594 -7.7344 -1.7969 0 121 133
4.2969 -8.6719 -2.1094 0 105 149
4.2969 -8.5156 -2.1094 0 105 149
4.4531 -8.6719 -2.1094 0 105 149
4.4531 -8.5156 -2.1094 0 105 149
4.4531 -8.3594 -2.1094 0 105 149
4.6094 -8.3594 -2.1094 0 105 149
4.4531 -8.2031 -2.1094 0 105 149
4.6094 -8.2031 -2.1094 0 105 149
3.8281 -7.5781 -1.9531 0 113 141
4.6094 -7.8906 -2.1094 0 105 149
4.4531 -7.8906 -1.9531 0 113 141
4.4531 -7.7344 -1.9531 0 113 141
4.6094 -7.7344 -1.9531 0 113 141
4.6094 -7.5781 -1.9531 0 113 141
4.7656 -7.5781 -1.9531 0 113 141
3.8281 -7.4219 -1.9531 0 113 141
3.8281 -7.2656 -1.9531 0 113 141
4.6094 -7.4219 -1.9531 0 113 141
4.6094 -7.2656 -1.9531 0 113 141
4.7656 -7.4219 -1.9531 0 113 141
4.7656 -7.2656 -1.9531 0 113 141
4.6094 -7.1094 -1.9531 0 113 141
4.7656 -7.1094 -1.9531 0 113 141
4.9219 -6.9531 -1.9531 0 113 141
4.9219 -6.7969 -1.9531 0 113 141
4.7656 -6.9531 -1.7969 0 121 133
4.7656 -6.7969 -1.7969 0 121 133
4.7656 -6.6406 -1.7969 0 121 133
4.9219 -6.6406 -1.7969 0 121 133
4.9219 -6.4844 -1.7969 0 121 133
5.0781 -6.4844 -1.7969 0 121 133
0.0781 -4.6094 -1.7969 0 121 133
0.2344 -4.6094 -1.7969 0 121 133
0.0781 -4.4531 -1.7969 0 121 133
0.2344 -4.4531 -1.7969 0 121 133
0.3906 -4.6094 -1.7969 0 121 133
0.5469 -4.6094 -1.7969 0 121 133
0.3906 -4.4531 -1.7969 0 121 133
0.5469 -4.4531 -1.7969 0 121 133
0.7031 -4.4531 -1.7969 0 121 133
0.8594 -4.4531 -1.7969 0 121 133
1.0156 -4.4531 -1.7969 0 121 133
1.1719 -4.4531 -1.7969 0 121 133
0.2344 -4.2969 -1.7969 0 121 133
0.0781 -4.1406 -1.7969 0 121 133
0.2344 -4.1406 -1.7969 0 121 133
0.5469 -4.2969 -1.7969 0 121 133
0.3906 -4.1406 -1.7969 0 121 133
0.5469 -4.1406 -1.7969 0 121 133
0.2344 -3.8281 -1.7969 0 121 133
0.0781 -3.8281 -1.6406 0 129 125
0.2344 -3.8281 -1.6406 0 129 125
0.5469 -3.9844 -1.7969 0 121 133
0.3906 -3.8281 -1.6406 0 129 125
0.8594 -4.2969 -1.7969 0 121 133
1.0156 -4.2969 -1.7969 0 121 133
1.1719 -4.2969 -1.7969 0 121 133
1.1719 -4.1406 -1.7969 0 121 133
0.7031 -3.9844 -1.7969 0 121 133
0.8594 -3.9844 -1.7969 0 121 133
1.0156 -3.8281 -1.7969 0 121 133
1.1719 -3.8281 -1.7969 0 121 133
1.3281 -4.2969 -1.7969 0 121 133
1.3281 -4.1406 -1.7969 0 121 133
1.4844 -4.1406 -1.7969 0 121 133
1.6406 -4.1406 -1.7969 0 121 133
1.3281 -3.9844 -1.7969 0 121 133
1.4844 -3.9844 -1.7969 0 121 133
1.6406 -3.9844 -1.7969 0 121 133
1.7969 -3.9844 -1.7969 0 121 133
1.7969 -3.8281 -1.7969 0 121 133
1.7969 -3.8281 -1.6406 0 129 125
1.9531 -3.8281 -1.7969 0 121 133
0.3906 -3.6719 -1.6406 0 129 125
0.5469 -3.6719 -1.6406 0 129 125
0.0781 -3.3594 -1.6406 0 129 125
0.2344 -3.3594 -1.6406 0 129 125
0.3906 -3.3594 -1.6406 0 129 125
0.3906 -3.2031 -1.6406 0 129 125
0.5469 -3.2031 -1.6406 0 129 125
0.7031 -3.5156 -1.6406 0 129 125
0.8594 -3.5156 -1.6406 0 129 125
1.1719 -3.6719 -1.7969 0 121 133
1.1719 -3.6719 -1.6406 0 129 125
1.0156 -3.5156 -1.6406 0 129 125
0.7031 -3.2031 -1.6406 0 129 125
1.0156 -3.3594 -1.6406 0 129 125
1.1719 -3.3594 -1.6406 0 129 125
0.0781 -3.0469 -1.4844 0 137 117
0.2344 -2.8906 -1.4844 0 137 117
0.3906 -2.8906 -1.4844 0 137 117
0.0781 -2.5781 -1.4844 0 137 117
0.2344 -2.5781 -1.4844 0 137 117
0.3906 -2.7344 -1.4844 0 137 117
0.5469 -2.7344 -1.4844 0 137 117
0.7031 -3.0469 -1.6406 0 129 125
0.8594 -3.0469 -1.6406 0 129 125
0.8594 -3.0469 -1.4844 0 137 117
1.0156 -3.0469 -1.4844 0 137 117
1.0156 -2.8906 -1.4844 0 137 117
1.3281 -3.6719 -1.7969 0 121 133
1.4844 -3.6719 -1.7969 0 121 133
1.4844 -3.5156 -1.7969 0 121 133
1.3281 -3.6719 -1.6406 0 129 125
1.7969 -3.6719 -1.6406 0 129 125
1.6406 -3.5156 -1.6406 0 129 125
1.3281 -3.2031 -1.6406 0 129 125
1.6406 -3.3594 -1.6406 0 129 125
1.7969 -3.3594 -1.6406 0 129 125
1.9531 -3.6719 -1.7969 0 121 133
2.1094 -3.6719 -1.7969 0 121 133
1.9531 -3.6719 -1.6406 0 129 125
2.1094 -3.5156 -1.6406 0 129 125
2.2656 -3.5156 -1.7969 0 121 133
2.2656 -3.5156 -1.6406 0 129 125
1.9531 -3.2031 -1.6406 0 129 125
2.2656 -3.3594 -1.6406 0 129 125
2.4219 -3.3594 -1.6406 0 129 125
2.4219 -3.2031 -1.6406 0 129 125
1.4844 -3.0469 -1.6406 0 129 125
2.5781 -3.2031 -1.6406 0 129 125
2.5781 -3.0469 -1.6406 0 129 125
-17.5781 0.2344 1.6406 44 210 0
-17.5781 1.1719 1.7969 52 202 0
-19.9219 1.3281 2.4219 84 170 0
-17.5781 1.6406 1.9531 60 194 0
-17.4219 0.2344 1.4844 36 218 0
-17.4219 0.3906 1.6406 44 210 0
-17.4219 0.5469 1.6406 44 210 0
-17.4219 0.7031 1.6406 44 210 0
-17.2656 0.7031 1.6406 44 210 0
-17.4219 0.8594 1.6406 44 210 0
-17.4219 0.8594 1.7969 52 202 0
-17.4219 1.0156 1.7969 52 202 0
-17.2656 0.3906 1.9531 60 194 0
-17.4219 1.4844 1.7969 52 202 0
-19.9219 1.1719 2.5781 93 161 0
-17.8906 0.2344 4.7656 206 48 0
-18.0469 0.0781 4.9219 214 40 0
-17.5781 0.0781 4.7656 206 48 0
-17.7344 0.2344 4.7656 206 48 0
-17.5781 0.2344 4.7656 206 48 0
-17.5781 0.3906 4.7656 206 48 0
-17.5781 0.5469 4.7656 206 48 0
-17.5781 1.0156 4.9219 214 40 0
-18.0469 1.4844 4.9219 214 40 0
-17.5781 1.7969 4.7656 206 48 0
-17.4219 0.0781 4.6094 198 56 0
-17.2656 0.0781 4.6094 198 56 0
-17.4219 0.2344 4.6094 198 56 0
-17.4219 0.3906 4.6094 198 56 0
-17.4219 0.5469 4.6094 198 56 0
-17.2656 0.5469 4.6094 198 56 0
-16.9531 0.2344 4.9219 214 40 0
-16.7969 0.0781 4.9219 214 40 0
-16.4844 0.5469 4.7656 206 48 0
-17.4219 0.7031 4.6094 198 56 0
-17.2656 0.7031 4.6094 198 56 0
-16.9531 1.1719 4.6094 198 56 0
-17.1094 0.7031 4.7656 206 48 0
-17.4219 1.0156 4.7656 206 48 0
-16.3281 0.8594 4.4531 190 64 0
-16.6406 1.0156 4.4531 190 64 0
-16.7969 0.7031 4.9219 214 40 0
-16.1719 0.8594 4.2969 182 72 0
-16.1719 0.3906 4.6094 198 56 0
-17.4219 1.3281 4.6094 198 56 0
-16.9531 1.4844 4.6094 198 56 0
-16.9531 1.6406 4.6094 198 56 0
-17.4219 1.3281 4.7656 206 48 0
-17.2656 1.6406 4.7656 206 48 0
-17.4219 1.7969 4.7656 206 48 0
-16.6406 1.4844 4.6094 198 56 0
-16.3281 1.3281 4.4531 190 64 0
-16.6406 1.7969 4.7656 206 48 0
-16.9531 1.9531 4.7656 206 48 0
-16.9531 2.4219 4.9219 214 40 0
-16.7969 2.1094 4.6094 198 56 0
-16.4844 1.9531 4.4531 190 64 0
-16.4844 2.1094 4.6094 198 56 0
-16.4844 2.2656 4.7656 206 48 0
-16.1719 1.3281 4.4531 190 64 0
-15.8594 1.4844 4.4531 190 64 0
-16.1719 1.6406 4.6094 198 56 0
-16.9531 2.8906 4.7656 206 48 0
-16.9531 3.3594 4.9219 214 40 0
-12.8906 3.3594 1.4844 36 218 0
-12.7344 3.2031 1.4844 36 218 0
-12.5781 3.5156 1.4844 36 218 0
-12.7344 4.4531 1.7969 52 202 0
-12.4219 3.2031 1.4844 36 218 0
-12.2656 3.3594 1.4844 36 218 0
-12.1094 3.3594 1.3281 28 226 0
-12.1094 3.5156 1.4844 36 218 0
-11.7969 3.5156 1.3281 28 226 0
-11.7969 3.6719 1.3281 28 226 0
-11.4844 3.6719 1.3281 28 226 0
-11.6406 3.8281 1.3281 28 226 0
-11.3281 3.8281 1.3281 28 226 0
-11.4844 3.9844 1.3281 28 226 0
-12.4219 4.6094 1.7969 52 202 0
-11.0156 3.8281 1.3281 28 226 0
-11.1719 3.9844 1.3281 28 226 0
-10.7031 3.8281 1.3281 28 226 0
-10.8594 3.9844 1.3281 28 226 0
-11.0156 4.1406 1.3281 28 226 0
-10.8594 4.1406 1.3281 28 226 0
-10.7031 4.2969 1.3281 28 226 0
-10.5469 3.9844 1.3281 28 226 0
-10.3906 4.1406 1.3281 28 226 0
-10.3906 4.2969 1.3281 28 226 0
-10.7031 4.4531 1.3281 28 226 0
-10.5469 4.4531 1.3281 28 226 0
-10.5469 4.6094 1.3281 28 226 0
-10.3906 4.6094 1.3281 28 226 0
-10.2344 4.4531 1.3281 28 226 0
-10.0781 4.6094 1.3281 28 226 0
-10.3906 4.7656 1.3281 28 226 0
-10.0781 4.7656 1.3281 28 226 0
-10.2344 4.9219 1.3281 28 226 0
-10.0781 4.9219 1.3281 28 226 0
-10.0781 5.0781 1.3281 28 226 0
-6.3281 0.0781 -0.7031 0 178 76
-7.1094 0.0781 -0.5469 0 186 68
-6.9531 0.0781 -0.5469 0 186 68
-7.1094 0.2344 -0.5469 0 186 68
-6.9531 0.2344 -0.5469 0 186 68
-7.1094 0.0781 -0.3906 0 194 60
-6.9531 0.0781 -0.3906 0 194 60
-6.9531 0.2344 -0.3906 0 194 60
-6.9531 0.3906 -0.5469 0 186 68
-6.9531 0.3906 -0.3906 0 194 60
-6.9531 0.5469 -0.3906 0 194 60
-7.2656 0.0781 -0.2344 0 202 52
-7.2656 0.2344 -0.2344 0 202 52
-7.1094 0.0781 -0.2344 0 202 52
-7.1094 0.2344 -0.2344 0 202 52
-6.9531 0.2344 -0.2344 0 202 52
-6.9531 0.2344 -0.0781 0 210 44
-7.1094 0.3906 -0.2344 0 202 52
-7.1094 0.5469 -0.2344 0 202 52
-6.9531 0.5469 -0.2344 0 202 52
-6.9531 0.3906 -0.0781 0 210 44
-6.9531 0.5469 -0.0781 0 210 44
-6.6406 0.0781 -0.5469 0 186 68
-6.6406 0.2344 -0.5469 0 186 68
-6.4844 0.0781 -0.5469 0 186 68
-6.7969 0.3906 -0.5469 0 186 68
-6.6406 0.5469 -0.5469 0 186 68
-6.7969 0.5469 -0.3906 0 194 60
-6.4844 0.3906 -0.5469 0 186 68
-6.4844 0.5469 -0.5469 0 186 68
-6.3281 0.5469 -0.5469 0 186 68
-6.9531 0.7031 -0.3906 0 194 60
-6.9531 0.8594 -0.3906 0 194 60
-6.9531 1.0156 -0.3906 0 194 60
-7.1094 0.7031 -0.2344 0 202 52
-6.9531 0.7031 -0.2344 0 202 52
