ply
format ascii 1.0
comment OctoMap 3D export - Moose Robot
comment Resolution: 0.100 m
element vertex 1397
property float x
property float y
property float z
property uchar red
property uchar green
property uchar blue
end_header
-24.2083 -34.0806 0.9493 0 198 56
-24.2083 -33.9244 0.9493 0 198 56
-24.2083 -33.7681 0.9493 0 198 56
-24.2083 -33.6119 0.9493 0 198 56
-24.8333 -33.2994 0.7930 0 193 61
-24.6770 -32.9869 0.7930 0 193 61
-24.8333 -32.9869 0.9493 0 198 56
-24.2083 -33.4556 0.9493 0 198 56
-24.0520 -33.4556 0.9493 0 198 56
-24.2083 -33.2994 0.9493 0 198 56
-24.0520 -33.2994 0.9493 0 198 56
-24.2083 -33.1431 0.9493 0 198 56
-24.0520 -33.1431 0.9493 0 198 56
-24.2083 -32.9869 0.9493 0 198 56
-22.8020 -34.0806 0.0118 0 168 86
-23.8958 -33.9244 0.4805 0 183 71
-23.7395 -33.7681 0.4805 0 183 71
-23.8958 -34.0806 0.9493 0 198 56
-23.8958 -33.9244 0.9493 0 198 56
-23.5833 -34.0806 0.7930 0 193 61
-23.4270 -33.9244 0.7930 0 193 61
-23.8958 -33.6119 0.9493 0 198 56
-23.5833 -33.7681 0.7930 0 193 61
-23.4270 -33.7681 0.7930 0 193 61
-23.4270 -33.6119 0.7930 0 193 61
-22.9583 -34.0806 0.6368 0 188 66
-22.9583 -33.9244 0.6368 0 188 66
-22.9583 -33.7681 0.6368 0 188 66
-23.5833 -33.4556 0.4805 0 183 71
-23.4270 -33.2994 0.4805 0 183 71
-23.8958 -33.2994 0.9493 0 198 56
-23.5833 -33.4556 0.7930 0 193 61
-23.4270 -33.4556 0.7930 0 193 61
-23.4270 -33.1431 0.7930 0 193 61
-23.4270 -32.9869 0.7930 0 193 61
-23.1145 -33.2994 0.6368 0 188 66
-22.9583 -33.4556 0.6368 0 188 66
-22.9583 -33.2994 0.6368 0 188 66
-23.2708 -33.1431 0.4805 0 183 71
-22.9583 -33.1431 0.6368 0 188 66
-22.9583 -32.9869 0.6368 0 188 66
-24.8333 -31.7369 -0.1445 0 163 91
-24.6770 -32.6744 0.9493 0 198 56
-24.6770 -32.3619 0.9493 0 198 56
-24.5208 -32.8306 0.7930 0 193 61
-24.2083 -32.6744 0.7930 0 193 61
-24.2083 -32.8306 0.9493 0 198 56
-24.0520 -32.8306 0.9493 0 198 56
-24.0520 -32.3619 0.7930 0 193 61
-24.0520 -32.5181 0.9493 0 198 56
-24.5208 -32.0494 0.9493 0 198 56
-24.0520 -32.2056 0.9493 0 198 56
-24.0520 -32.0494 0.9493 0 198 56
-24.5208 -31.7369 0.9493 0 198 56
-24.0520 -31.8931 0.9493 0 198 56
-24.0520 -31.7369 0.9493 0 198 56
-23.4270 -32.6744 0.7930 0 193 61
-23.8958 -32.3619 0.7930 0 193 61
-23.4270 -32.5181 0.7930 0 193 61
-23.1145 -32.8306 0.4805 0 183 71
-22.9583 -32.6744 0.4805 0 183 71
-22.9583 -32.8306 0.6368 0 188 66
-22.9583 -32.6744 0.6368 0 188 66
-23.2708 -32.3619 0.6368 0 188 66
-22.9583 -32.5181 0.6368 0 188 66
-23.8958 -32.2056 0.7930 0 193 61
-23.5833 -32.0494 0.7930 0 193 61
-23.7395 -31.8931 0.7930 0 193 61
-23.5833 -31.7369 0.7930 0 193 61
-22.8020 -32.2056 0.6368 0 188 66
-22.8020 -32.0494 0.6368 0 188 66
-23.1145 -31.7369 0.6368 0 188 66
-22.8020 -31.7369 0.6368 0 188 66
-23.2708 -32.0494 0.7930 0 193 61
-24.9895 -34.0806 1.1055 0 204 50
-24.9895 -33.9244 1.1055 0 204 50
-24.8333 -34.0806 1.2618 0 209 45
-24.8333 -33.6119 1.1055 0 204 50
-24.8333 -33.7681 1.2618 0 209 45
-24.5208 -33.7681 1.2618 0 209 45
-24.8333 -33.2994 1.1055 0 204 50
-24.8333 -33.4556 1.2618 0 209 45
-24.8333 -33.2994 1.2618 0 209 45
-24.8333 -32.9869 1.2618 0 209 45
-24.5208 -33.4556 1.2618 0 209 45
-24.9895 -34.0806 2.1993 0 239 15
-25.1458 -33.9244 2.1993 0 239 15
-24.8333 -33.7681 2.1993 0 239 15
-24.8333 -33.6119 2.1993 0 239 15
-24.0520 -33.9244 2.1993 0 239 15
-24.0520 -33.7681 2.1993 0 239 15
-24.0520 -33.6119 2.1993 0 239 15
-24.8333 -33.4556 2.1993 0 239 15
-24.8333 -33.2994 2.1993 0 239 15
-24.0520 -33.4556 2.1993 0 239 15
-24.0520 -33.2994 2.1993 0 239 15
-23.8958 -34.0806 1.2618 0 209 45
-23.7395 -33.9244 1.2618 0 209 45
-23.4270 -33.2994 1.2618 0 209 45
-23.2708 -32.9869 1.2618 0 209 45
-23.8958 -33.9244 2.1993 0 239 15
-23.2708 -34.0806 2.0430 0 234 20
-23.2708 -33.9244 2.0430 0 234 20
-23.2708 -33.7681 2.0430 0 234 20
-23.2708 -33.6119 2.0430 0 234 20
-23.4270 -33.2994 1.8868 0 229 25
-23.2708 -33.4556 2.0430 0 234 20
-23.2708 -33.2994 2.0430 0 234 20
-23.2708 -32.9869 2.1993 0 239 15
-24.8333 -32.8306 1.2618 0 209 45
-24.8333 -32.6744 1.2618 0 209 45
-24.8333 -32.5181 1.2618 0 209 45
-24.8333 -32.3619 1.2618 0 209 45
-24.6770 -32.0494 1.2618 0 209 45
-24.6770 -31.8931 1.2618 0 209 45
-24.8333 -31.7369 1.2618 0 209 45
-23.1145 -32.8306 1.4180 0 214 40
-22.9583 -32.5181 1.4180 0 214 40
-22.8020 -32.3619 1.4180 0 214 40
-23.2708 -32.8306 2.1993 0 239 15
-23.2708 -32.6744 2.1993 0 239 15
-23.2708 -32.5181 2.1993 0 239 15
-23.2708 -32.3619 2.1993 0 239 15
-23.2708 -32.2056 2.1993 0 239 15
-23.1145 -31.8931 2.1993 0 239 15
-23.1145 -31.7369 2.1993 0 239 15
-22.6458 -33.9244 0.0118 0 168 86
-22.3333 -33.7681 0.0118 0 168 86
-22.3333 -33.9244 0.3243 0 178 76
-22.3333 -33.7681 0.3243 0 178 76
-21.7083 -34.0806 0.3243 0 178 76
-21.8645 -33.6119 0.3243 0 178 76
-21.5520 -33.6119 0.1680 0 173 81
-22.0208 -33.4556 0.0118 0 168 86
-21.8645 -33.1431 0.0118 0 168 86
-21.7083 -32.9869 0.0118 0 168 86
-21.8645 -33.4556 0.3243 0 178 76
-21.5520 -33.4556 0.3243 0 178 76
-21.7083 -33.2994 0.3243 0 178 76
-21.5520 -33.1431 0.1680 0 173 81
-22.4895 -34.0806 0.4805 0 183 71
-22.4895 -33.9244 0.4805 0 183 71
-22.4895 -33.7681 0.4805 0 183 71
-22.3333 -33.7681 0.4805 0 183 71
-22.3333 -33.6119 0.4805 0 183 71
-21.8645 -33.7681 0.4805 0 183 71
-22.4895 -33.4556 0.4805 0 183 71
-22.3333 -33.4556 0.4805 0 183 71
-22.3333 -33.2994 0.4805 0 183 71
-22.4895 -32.9869 0.4805 0 183 71
-21.2395 -34.0806 -0.1445 0 163 91
-21.2395 -33.7681 -0.1445 0 163 91
-21.3958 -34.0806 0.3243 0 178 76
-21.3958 -33.7681 0.3243 0 178 76
-20.9270 -33.7681 0.1680 0 173 81
-20.4583 -34.0806 -0.1445 0 163 91
-20.4583 -33.9244 -0.1445 0 163 91
-20.3020 -33.6119 -0.1445 0 163 91
-21.0833 -33.2994 -0.1445 0 163 91
-21.3958 -33.4556 0.3243 0 178 76
-20.9270 -33.2994 0.1680 0 173 81
-21.3958 -32.9869 0.3243 0 178 76
-20.9270 -32.9869 0.1680 0 173 81
-20.3020 -33.2994 -0.1445 0 163 91
-20.4583 -33.1431 -0.1445 0 163 91
-20.3020 -32.9869 -0.1445 0 163 91
-20.7708 -33.4556 0.1680 0 173 81
-20.7708 -33.2994 0.1680 0 173 81
-22.1770 -32.8306 0.3243 0 178 76
-22.1770 -32.5181 0.3243 0 178 76
-21.5520 -32.6744 0.1680 0 173 81
-22.1770 -31.7369 0.3243 0 178 76
-21.8645 -32.2056 0.3243 0 178 76
-22.0208 -32.0494 0.3243 0 178 76
-21.5520 -32.2056 0.1680 0 173 81
-21.5520 -31.8931 0.1680 0 173 81
-21.7083 -31.8931 0.3243 0 178 76
-22.4895 -32.8306 0.4805 0 183 71
-22.6458 -32.3619 0.4805 0 183 71
-22.3333 -32.5181 0.4805 0 183 71
-21.8645 -32.8306 0.4805 0 183 71
-22.4895 -32.0494 0.6368 0 188 66
-22.3333 -32.0494 0.4805 0 183 71
-22.1770 -31.8931 0.6368 0 188 66
-20.9270 -32.8306 -0.1445 0 163 91
-21.0833 -32.5181 -0.1445 0 163 91
-20.9270 -32.5181 -0.1445 0 163 91
-21.3958 -32.6744 0.3243 0 178 76
-21.2395 -32.5181 0.1680 0 173 81
-21.2395 -32.3619 0.1680 0 173 81
-20.3020 -32.6744 -0.1445 0 163 91
-20.3020 -32.3619 -0.1445 0 163 91
-20.7708 -32.6744 0.1680 0 173 81
-20.7708 -32.3619 0.1680 0 173 81
-20.9270 -31.8931 -0.1445 0 163 91
-21.0833 -32.2056 0.1680 0 173 81
-20.7708 -31.8931 0.0118 0 168 86
-20.4583 -31.7369 0.1680 0 173 81
-22.3333 -34.0806 1.8868 0 229 25
-22.4895 -33.7681 1.8868 0 229 25
-22.1770 -33.9244 2.1993 0 239 15
-22.4895 -33.7681 2.0430 0 234 20
-21.8645 -34.0806 1.7305 0 224 30
-21.7083 -34.0806 1.7305 0 224 30
-21.7083 -33.9244 1.7305 0 224 30
-21.5520 -33.7681 1.7305 0 224 30
-21.7083 -33.6119 1.7305 0 224 30
-22.0208 -33.7681 2.1993 0 239 15
-22.4895 -33.4556 2.0430 0 234 20
-22.4895 -33.2994 2.0430 0 234 20
-21.7083 -33.4556 1.7305 0 224 30
-21.5520 -33.4556 1.7305 0 224 30
-21.7083 -33.2994 1.7305 0 224 30
-21.5520 -33.2994 1.7305 0 224 30
-21.5520 -33.1431 1.7305 0 224 30
-21.5520 -32.9869 1.7305 0 224 30
-21.7083 -33.1431 2.0430 0 234 20
-21.5520 -32.9869 2.1993 0 239 15
-21.0833 -34.0806 1.5743 0 219 35
-20.3020 -34.0806 1.2618 0 209 45
-20.7708 -34.0806 1.4180 0 214 40
-20.3020 -33.9244 1.4180 0 214 40
-20.3020 -33.7681 1.4180 0 214 40
-20.3020 -33.6119 1.4180 0 214 40
-21.0833 -34.0806 1.8868 0 229 25
-21.0833 -33.6119 1.7305 0 224 30
-21.0833 -33.7681 1.8868 0 229 25
-20.4583 -34.0806 2.1993 0 239 15
-21.3958 -33.2994 1.7305 0 224 30
-21.2395 -32.9869 1.7305 0 224 30
-20.9270 -33.1431 1.7305 0 224 30
-20.9270 -32.9869 1.7305 0 224 30
-20.6145 -33.2994 1.8868 0 229 25
-22.1770 -31.7369 1.2618 0 209 45
-22.4895 -32.8306 2.0430 0 234 20
-22.4895 -32.6744 2.0430 0 234 20
-22.4895 -32.5181 2.0430 0 234 20
-21.5520 -32.8306 1.7305 0 224 30
-22.1770 -32.2056 2.0430 0 234 20
-22.1770 -32.0494 2.0430 0 234 20
-22.0208 -31.8931 2.0430 0 234 20
-22.0208 -31.7369 2.0430 0 234 20
-20.9270 -32.8306 1.7305 0 224 30
-21.0833 -32.6744 1.7305 0 224 30
-21.2395 -32.3619 1.7305 0 224 30
-21.3958 -32.6744 2.1993 0 239 15
-21.3958 -32.3619 2.1993 0 239 15
-20.4583 -32.8306 1.8868 0 229 25
-20.6145 -32.3619 1.7305 0 224 30
-20.3020 -32.5181 1.8868 0 229 25
-21.2395 -32.2056 1.7305 0 224 30
-20.9270 -32.2056 1.8868 0 229 25
-21.2395 -31.8931 1.8868 0 229 25
-21.2395 -31.7369 1.8868 0 229 25
-21.2395 -32.0494 2.1993 0 239 15
-21.0833 -31.7369 2.1993 0 239 15
-20.6145 -32.2056 1.7305 0 224 30
-20.6145 -32.0494 1.7305 0 224 30
-20.3020 -32.2056 1.8868 0 229 25
-20.7708 -31.8931 1.8868 0 229 25
-20.4583 -31.8931 1.7305 0 224 30
-20.4583 -31.7369 1.7305 0 224 30
-24.8333 -31.4244 -0.1445 0 163 91
-24.6770 -31.2681 -0.1445 0 163 91
-24.8333 -31.1119 -0.1445 0 163 91
-24.9895 -30.9556 -0.1445 0 163 91
-24.8333 -30.7994 0.0118 0 168 86
-24.5208 -31.5806 0.9493 0 198 56
-24.0520 -31.5806 0.9493 0 198 56
-24.0520 -31.4244 0.9493 0 198 56
-24.5208 -31.2681 0.9493 0 198 56
-24.0520 -31.2681 0.9493 0 198 56
-24.0520 -31.1119 0.9493 0 198 56
-24.5208 -30.7994 0.9493 0 198 56
-23.2708 -30.6431 -0.1445 0 163 91
-23.7395 -31.5806 0.7930 0 193 61
-23.4270 -31.5806 0.7930 0 193 61
-23.4270 -31.4244 0.7930 0 193 61
-23.7395 -31.2681 0.7930 0 193 61
-23.7395 -31.1119 0.7930 0 193 61
-23.4270 -31.2681 0.7930 0 193 61
-23.1145 -31.4244 0.6368 0 188 66
-22.8020 -31.5806 0.6368 0 188 66
-22.8020 -31.2681 0.6368 0 188 66
-22.9583 -31.1119 0.6368 0 188 66
-22.8020 -31.1119 0.6368 0 188 66
-23.2708 -31.5806 0.7930 0 193 61
-23.2708 -31.2681 0.7930 0 193 61
-23.7395 -30.6431 0.7930 0 193 61
-23.8958 -30.4869 0.7930 0 193 61
-22.9583 -30.6431 0.6368 0 188 66
-23.2708 -30.9556 0.7930 0 193 61
-23.2708 -30.7994 0.7930 0 193 61
-25.1458 -30.1744 0.0118 0 168 86
-24.8333 -30.1744 0.0118 0 168 86
-24.2083 -29.2369 0.1680 0 173 81
-24.0520 -29.8619 0.7930 0 193 61
-24.0520 -29.5494 0.7930 0 193 61
-23.5833 -30.0181 0.0118 0 168 86
-23.4270 -29.7056 0.1680 0 173 81
-22.9583 -29.2369 0.1680 0 173 81
-23.8958 -30.3306 0.7930 0 193 61
-23.5833 -30.1744 0.7930 0 193 61
-23.4270 -30.1744 0.7930 0 193 61
-23.7395 -30.0181 0.7930 0 193 61
-22.9583 -30.3306 0.6368 0 188 66
-22.9583 -30.1744 0.6368 0 188 66
-22.9583 -30.0181 0.6368 0 188 66
-22.9583 -29.8619 0.6368 0 188 66
-23.7395 -29.7056 0.7930 0 193 61
-23.7395 -29.5494 0.7930 0 193 61
-22.9583 -29.7056 0.6368 0 188 66
-22.8020 -29.3931 0.4805 0 183 71
-23.2708 -29.2369 0.7930 0 193 61
-24.8333 -31.4244 1.2618 0 209 45
-24.9895 -31.2681 1.2618 0 209 45
-24.8333 -31.1119 1.2618 0 209 45
-24.2083 -31.1119 1.4180 0 214 40
-24.9895 -30.7994 1.2618 0 209 45
-25.1458 -30.6431 1.2618 0 209 45
-24.9895 -30.4869 1.2618 0 209 45
-24.6770 -30.6431 1.1055 0 204 50
-24.6770 -30.4869 1.1055 0 204 50
-24.0520 -30.9556 1.1055 0 204 50
-24.0520 -30.7994 1.1055 0 204 50
-24.0520 -30.7994 1.4180 0 214 40
-23.8958 -30.4869 1.2618 0 209 45
-23.7395 -30.4869 1.4180 0 214 40
-22.9583 -31.5806 2.1993 0 239 15
-22.9583 -31.4244 2.1993 0 239 15
-22.9583 -31.2681 2.1993 0 239 15
-22.9583 -31.1119 2.1993 0 239 15
-25.1458 -30.3306 1.2618 0 209 45
-25.1458 -30.1744 1.2618 0 209 45
-24.6770 -30.3306 1.1055 0 204 50
-25.1458 -30.0181 1.5743 0 219 35
-24.5208 -30.0181 1.1055 0 204 50
-24.5208 -29.8619 1.1055 0 204 50
-25.1458 -29.7056 1.2618 0 209 45
-25.1458 -29.2369 1.2618 0 209 45
-24.6770 -29.5494 1.5743 0 219 35
-24.5208 -29.3931 1.1055 0 204 50
-24.5208 -29.2369 1.5743 0 219 35
-24.9895 -29.3931 1.7305 0 224 30
-23.5833 -30.3306 1.2618 0 209 45
-23.8958 -29.8619 1.1055 0 204 50
-23.4270 -30.0181 1.2618 0 209 45
-23.5833 -30.1744 1.4180 0 214 40
-23.2708 -29.8619 1.4180 0 214 40
-22.9583 -29.5494 1.2618 0 209 45
-22.8020 -29.5494 1.4180 0 214 40
-22.1770 -31.4244 0.3243 0 178 76
-22.1770 -31.2681 0.3243 0 178 76
-22.0208 -31.4244 0.3243 0 178 76
-21.5520 -31.4244 0.3243 0 178 76
-21.5520 -31.1119 0.3243 0 178 76
-22.1770 -30.9556 0.3243 0 178 76
-22.1770 -30.7994 0.3243 0 178 76
-22.1770 -30.4869 0.3243 0 178 76
-21.5520 -30.7994 -0.1445 0 163 91
-21.8645 -30.9556 0.1680 0 173 81
-21.5520 -30.9556 0.3243 0 178 76
-22.6458 -31.2681 0.7930 0 193 61
-21.7083 -31.2681 0.6368 0 188 66
-22.4895 -30.9556 0.4805 0 183 71
-22.4895 -30.4869 0.4805 0 183 71
-22.4895 -30.9556 0.7930 0 193 61
-22.1770 -30.6431 0.7930 0 193 61
-21.3958 -31.2681 0.1680 0 173 81
-21.0833 -31.1119 0.1680 0 173 81
-20.6145 -31.5806 0.0118 0 168 86
-21.2395 -30.6431 0.0118 0 168 86
-20.9270 -30.4869 0.0118 0 168 86
-21.0833 -30.7994 0.1680 0 173 81
-20.3020 -30.4869 -0.1445 0 163 91
-20.4583 -30.4869 0.4805 0 183 71
-22.1770 -30.1744 0.3243 0 178 76
-21.7083 -30.1744 0.1680 0 173 81
-21.5520 -30.0181 0.3243 0 178 76
-21.7083 -29.7056 0.1680 0 173 81
-21.5520 -29.2369 0.1680 0 173 81
-22.4895 -30.0181 0.4805 0 183 71
-21.7083 -30.1744 0.7930 0 193 61
-22.4895 -29.5494 0.4805 0 183 71
-22.3333 -29.7056 0.4805 0 183 71
-22.4895 -29.3931 0.4805 0 183 71
-20.9270 -30.3306 -0.1445 0 163 91
-21.2395 -30.0181 0.0118 0 168 86
-20.9270 -30.0181 0.0118 0 168 86
-20.9270 -29.8619 0.0118 0 168 86
-20.3020 -30.1744 -0.1445 0 163 91
-21.3958 -29.7056 0.0118 0 168 86
-20.9270 -29.2369 -0.1445 0 163 91
-20.9270 -29.3931 0.0118 0 168 86
-21.3958 -29.5494 0.1680 0 173 81
-20.3020 -29.7056 -0.1445 0 163 91
-21.3958 -29.8619 0.7930 0 193 61
-21.0833 -29.3931 0.7930 0 193 61
-22.0208 -31.4244 1.2618 0 209 45
-21.7083 -31.1119 1.2618 0 209 45
-22.0208 -31.5806 2.0430 0 234 20
-22.0208 -31.4244 2.0430 0 234 20
-22.0208 -31.2681 2.1993 0 239 15
-22.0208 -31.1119 2.1993 0 239 15
-22.0208 -30.9556 2.1993 0 239 15
-22.0208 -30.7994 2.1993 0 239 15
-21.8645 -30.6431 2.1993 0 239 15
-21.8645 -30.4869 2.1993 0 239 15
-21.2395 -30.7994 1.2618 0 209 45
-21.0833 -31.5806 1.8868 0 229 25
-21.0833 -31.4244 1.8868 0 229 25
-21.0833 -31.2681 1.8868 0 229 25
-21.0833 -31.5806 2.1993 0 239 15
-20.9270 -31.2681 2.1993 0 239 15
-20.7708 -31.5806 1.8868 0 229 25
-20.4583 -31.5806 1.7305 0 224 30
-20.3020 -31.2681 1.7305 0 224 30
-20.3020 -31.1119 1.7305 0 224 30
-20.4583 -31.2681 1.8868 0 229 25
-21.0833 -30.9556 1.8868 0 229 25
-20.9270 -30.7994 1.8868 0 229 25
-20.9270 -30.6431 1.8868 0 229 25
-20.3020 -30.9556 1.8868 0 229 25
-20.6145 -30.4869 2.1993 0 239 15
-22.6458 -29.2369 1.2618 0 209 45
-22.6458 -29.2369 1.4180 0 214 40
-21.8645 -30.1744 2.1993 0 239 15
-21.0833 -30.3306 1.2618 0 209 45
-20.7708 -30.0181 1.2618 0 209 45
-20.3020 -29.3931 1.2618 0 209 45
-20.7708 -30.3306 1.8868 0 229 25
-20.7708 -30.1744 1.8868 0 229 25
-20.3020 -30.0181 2.1993 0 239 15
-21.3958 -29.7056 2.1993 0 239 15
-21.3958 -29.5494 2.1993 0 239 15
-21.2395 -29.2369 2.1993 0 239 15
-20.3020 -29.5494 1.8868 0 229 25
-20.3020 -29.7056 2.1993 0 239 15
-24.6770 -33.7681 2.5118 0 249 5
-24.9895 -33.1431 2.3555 0 244 10
-24.9895 -32.9869 2.3555 0 244 10
-24.0520 -33.1431 2.3555 0 244 10
-24.5208 -34.0806 3.4493 25 229 0
-24.5208 -33.9244 3.4493 25 229 0
-24.3645 -33.7681 3.4493 25 229 0
-24.3645 -33.6119 3.4493 25 229 0
-23.1145 -33.9244 2.5118 0 249 5
-23.1145 -33.7681 2.5118 0 249 5
-22.9583 -34.0806 3.1368 15 239 0
-22.8020 -33.9244 3.2930 20 234 0
-24.9895 -32.8306 2.3555 0 244 10
-24.9895 -32.6744 2.3555 0 244 10
-24.9895 -32.5181 2.3555 0 244 10
-25.1458 -32.3619 2.3555 0 244 10
-24.9895 -32.3619 2.3555 0 244 10
-24.2083 -32.8306 2.3555 0 244 10
-24.2083 -32.6744 2.3555 0 244 10
-24.2083 -32.5181 2.3555 0 244 10
-24.2083 -32.3619 2.3555 0 244 10
-25.1458 -32.2056 2.3555 0 244 10
-25.1458 -32.0494 2.3555 0 244 10
-25.1458 -31.8931 2.3555 0 244 10
-25.1458 -31.7369 2.3555 0 244 10
-25.1458 -31.7369 2.5118 0 249 5
-24.2083 -32.2056 2.3555 0 244 10
-24.2083 -32.0494 2.3555 0 244 10
-24.2083 -31.8931 2.3555 0 244 10
-24.2083 -31.7369 2.3555 0 244 10
-23.8958 -32.0494 2.5118 0 249 5
-24.3645 -34.0806 3.7618 35 219 0
-24.0520 -33.9244 3.6055 30 224 0
-24.2083 -33.4556 3.6055 30 224 0
-24.0520 -33.2994 3.6055 30 224 0
-23.8958 -33.7681 3.6055 30 224 0
-23.8958 -33.1431 3.6055 30 224 0
-23.7395 -32.9869 3.6055 30 224 0
-24.5208 -32.8306 3.9180 40 214 0
-23.7395 -32.6744 3.6055 30 224 0
-23.5833 -32.5181 3.7618 35 219 0
-23.4270 -32.3619 3.7618 35 219 0
-23.4270 -32.2056 3.7618 35 219 0
-23.2708 -32.0494 3.7618 35 219 0
-21.5520 -33.9244 2.8243 5 249 0
-22.6458 -33.2994 2.5118 0 249 5
-22.6458 -33.1431 2.5118 0 249 5
-22.6458 -32.9869 2.5118 0 249 5
-21.5520 -33.4556 2.8243 5 249 0
-22.6458 -33.7681 3.2930 20 234 0
-22.4895 -33.6119 3.2930 20 234 0
-21.8645 -33.9244 2.9805 10 244 0
-21.7083 -33.7681 2.9805 10 244 0
-21.7083 -33.6119 2.9805 10 244 0
-22.4895 -33.2994 3.2930 20 234 0
-22.3333 -33.1431 3.4493 25 229 0
-22.1770 -32.9869 3.4493 25 229 0
-21.2395 -33.7681 2.8243 5 249 0
-20.3020 -33.6119 2.3555 0 244 10
-20.4583 -33.9244 2.8243 5 249 0
-20.7708 -33.1431 2.3555 0 244 10
-21.3958 -34.0806 3.1368 15 239 0
-21.2395 -33.9244 3.1368 15 239 0
-21.0833 -33.6119 3.1368 15 239 0
-20.7708 -33.9244 2.9805 10 244 0
-20.4583 -33.7681 2.9805 10 244 0
-20.9270 -33.4556 3.2930 20 234 0
-20.4583 -33.4556 2.9805 10 244 0
-20.3020 -33.4556 2.9805 10 244 0
-20.6145 -33.2994 3.2930 20 234 0
-20.3020 -32.9869 3.2930 20 234 0
-22.4895 -32.6744 2.5118 0 249 5
-22.4895 -32.5181 2.5118 0 249 5
-22.3333 -32.2056 2.5118 0 249 5
-22.1770 -31.8931 2.5118 0 249 5
-22.1770 -31.7369 2.5118 0 249 5
-22.0208 -32.8306 3.4493 25 229 0
-22.0208 -32.5181 3.2930 20 234 0
-21.7083 -32.5181 3.4493 25 229 0
-21.5520 -32.3619 3.4493 25 229 0
-20.6145 -32.8306 2.3555 0 244 10
-21.2395 -32.2056 2.6680 0 255 0
-20.7708 -32.5181 3.1368 15 239 0
-22.3333 -31.7369 3.7618 35 219 0
-20.3020 -31.7369 4.3868 56 198 0
-25.1458 -31.5806 2.5118 0 249 5
-25.1458 -31.4244 2.5118 0 249 5
-25.1458 -31.2681 2.5118 0 249 5
-24.9895 -31.1119 2.5118 0 249 5
-24.0520 -31.2681 2.5118 0 249 5
-24.9895 -30.9556 2.5118 0 249 5
-24.9895 -30.7994 2.5118 0 249 5
-25.1458 -30.4869 2.3555 0 244 10
-24.9895 -30.6431 2.5118 0 249 5
-24.9895 -30.4869 2.5118 0 249 5
-23.8958 -31.5806 2.3555 0 244 10
-23.8958 -31.4244 2.3555 0 244 10
-23.7395 -31.5806 2.5118 0 249 5
-23.8958 -31.2681 2.3555 0 244 10
-23.8958 -31.1119 2.5118 0 249 5
-23.4270 -31.1119 2.6680 0 255 0
-23.8958 -30.9556 2.5118 0 249 5
-23.8958 -30.7994 2.5118 0 249 5
-23.8958 -30.6431 2.5118 0 249 5
-23.8958 -30.4869 2.5118 0 249 5
-23.4270 -30.7994 2.6680 0 255 0
-22.9583 -30.9556 2.3555 0 244 10
-22.9583 -30.7994 2.3555 0 244 10
-22.9583 -30.6431 2.3555 0 244 10
-22.9583 -30.4869 2.3555 0 244 10
-23.2708 -30.4869 2.6680 0 255 0
-24.9895 -30.3306 2.5118 0 249 5
-24.9895 -30.1744 2.5118 0 249 5
-24.9895 -30.0181 2.5118 0 249 5
-24.9895 -29.8619 2.6680 0 255 0
-24.9895 -29.7056 2.6680 0 255 0
-24.9895 -29.5494 2.6680 0 255 0
-24.6770 -29.2369 2.6680 0 255 0
-23.8958 -30.3306 2.5118 0 249 5
-23.8958 -30.1744 2.5118 0 249 5
-23.8958 -30.0181 2.5118 0 249 5
-23.8958 -29.8619 2.5118 0 249 5
-22.8020 -30.3306 2.3555 0 244 10
-22.8020 -30.1744 2.3555 0 244 10
-23.1145 -30.1744 2.6680 0 255 0
-23.5833 -29.5494 2.5118 0 249 5
-23.5833 -29.3931 2.5118 0 249 5
-23.5833 -29.2369 2.5118 0 249 5
-22.0208 -31.4244 2.5118 0 249 5
-22.0208 -31.1119 2.5118 0 249 5
-21.8645 -30.7994 2.5118 0 249 5
-21.5520 -30.1744 2.6680 0 255 0
-22.4895 -29.7056 2.3555 0 244 10
-22.4895 -29.5494 2.3555 0 244 10
-22.3333 -29.3931 2.3555 0 244 10
-22.4895 -29.2369 2.6680 0 255 0
-20.9270 -29.3931 2.5118 0 249 5
-22.0208 -31.5806 3.9180 40 214 0
-21.5520 -31.2681 3.9180 40 214 0
-21.5520 -30.4869 4.6993 66 188 0
-21.2395 -31.1119 3.9180 40 214 0
-21.0833 -30.7994 3.9180 40 214 0
-20.7708 -30.6431 4.0743 45 209 0
-20.6145 -31.5806 4.3868 56 198 0
-20.6145 -31.4244 4.3868 56 198 0
-20.4583 -31.2681 4.3868 56 198 0
-21.5520 -30.3306 4.6993 66 188 0
-21.5520 -30.1744 4.6993 66 188 0
-20.4583 -30.3306 4.0743 45 209 0
-18.4270 -34.0806 0.9493 0 198 56
-18.4270 -33.9244 0.9493 0 198 56
-17.8020 -33.9244 0.9493 0 198 56
-18.2708 -33.7681 0.9493 0 198 56
-18.2708 -33.6119 0.9493 0 198 56
-17.8020 -33.7681 0.9493 0 198 56
-18.2708 -33.4556 0.9493 0 198 56
-18.1145 -33.1431 0.9493 0 198 56
-18.1145 -32.9869 0.9493 0 198 56
-20.1458 -32.0494 -0.1445 0 163 91
-19.8333 -34.0806 1.4180 0 214 40
-19.5208 -33.9244 1.2618 0 209 45
-19.0520 -34.0806 1.2618 0 209 45
-19.3645 -33.9244 1.4180 0 214 40
-19.5208 -33.7681 1.4180 0 214 40
-19.2083 -33.6119 1.4180 0 214 40
-20.1458 -33.4556 1.4180 0 214 40
-20.1458 -33.2994 1.4180 0 214 40
-20.1458 -33.1431 1.4180 0 214 40
-20.1458 -32.9869 1.4180 0 214 40
-19.3645 -33.4556 1.4180 0 214 40
-19.3645 -33.2994 1.4180 0 214 40
-19.2083 -33.4556 1.4180 0 214 40
-19.2083 -33.2994 1.4180 0 214 40
-19.3645 -33.1431 1.4180 0 214 40
-19.3645 -32.9869 1.4180 0 214 40
-19.2083 -32.9869 1.4180 0 214 40
-19.9895 -33.9244 1.7305 0 224 30
-19.9895 -33.7681 1.7305 0 224 30
-19.6770 -34.0806 2.1993 0 239 15
-19.0520 -34.0806 1.8868 0 229 25
-19.0520 -32.9869 1.8868 0 229 25
-19.3645 -33.1431 2.0430 0 234 20
-19.2083 -33.1431 2.0430 0 234 20
-18.8958 -34.0806 1.1055 0 204 50
-18.8958 -33.9244 1.1055 0 204 50
-18.4270 -34.0806 1.1055 0 204 50
-18.4270 -33.9244 1.1055 0 204 50
-18.8958 -33.7681 1.1055 0 204 50
-18.8958 -33.6119 1.1055 0 204 50
-18.8958 -33.7681 1.2618 0 209 45
-18.2708 -33.6119 1.2618 0 209 45
-18.8958 -33.4556 1.1055 0 204 50
-18.8958 -33.2994 1.1055 0 204 50
-18.8958 -33.4556 1.2618 0 209 45
-18.7395 -33.1431 1.1055 0 204 50
-18.7395 -32.9869 1.1055 0 204 50
-18.2708 -33.2994 1.2618 0 209 45
-18.1145 -32.9869 1.2618 0 209 45
-18.8958 -33.9244 1.7305 0 224 30
-20.1458 -32.8306 1.4180 0 214 40
-19.8333 -32.6744 1.4180 0 214 40
-19.8333 -32.5181 1.4180 0 214 40
-19.8333 -32.3619 1.4180 0 214 40
-19.3645 -32.8306 1.4180 0 214 40
-19.0520 -32.6744 1.4180 0 214 40
-19.6770 -32.0494 1.4180 0 214 40
-19.6770 -31.8931 1.4180 0 214 40
-19.5208 -31.7369 1.4180 0 214 40
-19.3645 -32.8306 1.7305 0 224 30
-19.3645 -32.5181 1.7305 0 224 30
-20.1458 -31.8931 1.8868 0 229 25
-19.0520 -32.2056 1.7305 0 224 30
-18.7395 -32.6744 1.2618 0 209 45
-18.5833 -32.6744 1.4180 0 214 40
-18.8958 -32.3619 1.4180 0 214 40
-18.5833 -32.3619 1.4180 0 214 40
-18.1145 -32.8306 1.1055 0 204 50
-18.2708 -32.8306 1.2618 0 209 45
-18.2708 -32.5181 1.2618 0 209 45
-17.9583 -32.5181 1.1055 0 204 50
-18.8958 -32.2056 1.4180 0 214 40
-18.7395 -32.0494 1.4180 0 214 40
-18.4270 -32.0494 1.4180 0 214 40
-18.5833 -31.7369 1.4180 0 214 40
-18.2708 -32.2056 1.1055 0 204 50
-18.1145 -32.2056 1.2618 0 209 45
-18.1145 -31.8931 1.1055 0 204 50
-18.1145 -31.7369 1.1055 0 204 50
-18.8958 -32.8306 1.8868 0 229 25
-17.1770 -34.0806 0.7930 0 193 61
-17.1770 -33.9244 0.7930 0 193 61
-17.4895 -33.7681 0.9493 0 198 56
-17.6458 -33.6119 0.9493 0 198 56
-16.5520 -33.9244 0.6368 0 188 66
-16.8645 -33.7681 0.7930 0 193 61
-17.0208 -33.6119 0.7930 0 193 61
-17.4895 -33.2994 0.9493 0 198 56
-17.3333 -33.2994 0.9493 0 198 56
-17.4895 -32.9869 0.9493 0 198 56
-17.1770 -32.9869 0.9493 0 198 56
-17.0208 -33.4556 0.7930 0 193 61
-16.8645 -33.1431 0.7930 0 193 61
-16.7083 -32.9869 0.7930 0 193 61
-15.4583 -34.0806 0.3243 0 178 76
-15.4583 -33.7681 0.3243 0 178 76
-15.4583 -33.4556 0.3243 0 178 76
-15.3020 -33.4556 0.3243 0 178 76
-15.3020 -33.2994 0.3243 0 178 76
-16.2395 -34.0806 0.4805 0 183 71
-15.9270 -33.9244 0.6368 0 188 66
-16.2395 -33.7681 0.4805 0 183 71
-16.3958 -33.6119 0.6368 0 188 66
-16.2395 -34.0806 0.7930 0 193 61
-16.3958 -34.0806 0.9493 0 198 56
-16.0833 -33.9244 0.7930 0 193 61
-15.3020 -33.9244 0.4805 0 183 71
-15.7708 -33.7681 0.4805 0 183 71
-16.0833 -33.4556 0.4805 0 183 71
-15.9270 -33.1431 0.4805 0 183 71
-16.2395 -33.1431 0.7930 0 193 61
-16.3958 -32.9869 0.9493 0 198 56
-16.0833 -33.1431 0.9493 0 198 56
-15.6145 -33.2994 0.4805 0 183 71
-15.6145 -33.2994 0.6368 0 188 66
-15.6145 -32.9869 0.4805 0 183 71
-17.3333 -32.8306 0.9493 0 198 56
-17.3333 -32.6744 0.9493 0 198 56
-17.3333 -32.3619 0.9493 0 198 56
-16.7083 -32.6744 0.7930 0 193 61
-17.0208 -32.5181 0.9493 0 198 56
-16.5520 -32.3619 0.9493 0 198 56
-17.4895 -31.8931 0.9493 0 198 56
-16.7083 -31.7369 0.9493 0 198 56
-16.0833 -32.8306 0.7930 0 193 61
-16.0833 -32.6744 0.7930 0 193 61
-15.6145 -32.5181 0.4805 0 183 71
-15.3020 -32.5181 0.4805 0 183 71
-16.2395 -32.2056 0.7930 0 193 61
-16.0833 -31.8931 0.7930 0 193 61
-15.4583 -32.0494 0.4805 0 183 71
-15.7708 -32.0494 0.7930 0 193 61
-15.6145 -31.7369 0.7930 0 193 61
-17.4895 -32.2056 1.1055 0 204 50
-17.3333 -31.8931 1.1055 0 204 50
-17.3333 -31.7369 1.1055 0 204 50
-16.5520 -32.0494 1.1055 0 204 50
-16.5520 -32.2056 1.2618 0 209 45
-16.3958 -31.8931 1.1055 0 204 50
-16.2395 -31.7369 1.1055 0 204 50
-20.1458 -31.5806 -0.1445 0 163 91
-20.1458 -31.2681 0.1680 0 173 81
-19.8333 -30.9556 0.1680 0 173 81
-19.3645 -30.6431 0.1680 0 173 81
-19.0520 -30.1744 0.1680 0 173 81
-20.1458 -29.2369 -0.1445 0 163 91
-19.9895 -30.0181 0.4805 0 183 71
-19.6770 -29.7056 0.4805 0 183 71
-19.5208 -31.4244 1.4180 0 214 40
-19.3645 -31.4244 1.5743 0 219 35
-19.3645 -31.2681 1.4180 0 214 40
-19.2083 -31.1119 1.5743 0 219 35
-19.3645 -30.9556 1.5743 0 219 35
-19.2083 -30.7994 1.5743 0 219 35
-19.2083 -30.4869 1.5743 0 219 35
-19.9895 -31.5806 1.8868 0 229 25
-19.8333 -31.2681 1.8868 0 229 25
-19.6770 -30.7994 1.8868 0 229 25
-20.1458 -30.6431 1.8868 0 229 25
-20.1458 -30.4869 1.8868 0 229 25
-18.5833 -31.5806 1.4180 0 214 40
-18.5833 -31.2681 1.4180 0 214 40
-17.8020 -31.5806 1.2618 0 209 45
-17.9583 -31.4244 1.2618 0 209 45
-17.8020 -31.1119 1.2618 0 209 45
-18.1145 -31.5806 1.4180 0 214 40
-18.2708 -31.1119 1.4180 0 214 40
-17.9583 -31.1119 1.4180 0 214 40
-18.4270 -30.9556 1.4180 0 214 40
-17.8020 -30.9556 1.2618 0 209 45
-18.2708 -30.7994 1.4180 0 214 40
-17.8020 -30.7994 1.4180 0 214 40
-18.1145 -30.6431 1.4180 0 214 40
-18.2708 -30.4869 1.4180 0 214 40
-18.8958 -31.4244 1.7305 0 224 30
-19.0520 -30.1744 1.5743 0 219 35
-19.9895 -30.1744 1.8868 0 229 25
-19.8333 -29.8619 1.8868 0 229 25
-19.3645 -30.3306 1.8868 0 229 25
-19.3645 -30.0181 1.8868 0 229 25
-20.1458 -29.3931 1.8868 0 229 25
-19.3645 -29.2369 1.8868 0 229 25
-19.0520 -29.3931 1.8868 0 229 25
-18.7395 -30.1744 1.5743 0 219 35
-18.8958 -29.8619 1.5743 0 219 35
-17.9583 -30.3306 1.4180 0 214 40
-18.1145 -30.0181 1.4180 0 214 40
-17.9583 -29.8619 1.4180 0 214 40
-18.8958 -29.5494 1.5743 0 219 35
-18.4270 -29.7056 1.5743 0 219 35
-18.2708 -29.2369 1.5743 0 219 35
-18.2708 -30.1744 1.7305 0 224 30
-17.9583 -29.5494 1.7305 0 224 30
-16.5520 -31.4244 0.9493 0 198 56
-16.2395 -31.4244 0.7930 0 193 61
-16.3958 -31.1119 0.9493 0 198 56
-16.0833 -31.1119 0.7930 0 193 61
-15.7708 -31.2681 0.7930 0 193 61
-16.0833 -30.6431 0.9493 0 198 56
-15.9270 -30.6431 0.9493 0 198 56
-15.6145 -30.9556 0.7930 0 193 61
-15.4583 -30.6431 0.7930 0 193 61
-16.0833 -30.3306 0.9493 0 198 56
-15.9270 -29.8619 0.9493 0 198 56
-15.4583 -29.8619 0.7930 0 193 61
-15.6145 -29.3931 0.9493 0 198 56
-15.3020 -29.3931 0.9493 0 198 56
-17.3333 -31.4244 1.1055 0 204 50
-17.1770 -31.4244 1.1055 0 204 50
-17.6458 -31.2681 1.2618 0 209 45
-17.1770 -31.1119 1.1055 0 204 50
-17.4895 -30.7994 1.2618 0 209 45
-17.6458 -30.4869 1.2618 0 209 45
-17.0208 -30.7994 1.1055 0 204 50
-16.8645 -30.7994 1.1055 0 204 50
-16.8645 -30.4869 1.1055 0 204 50
-17.4895 -30.1744 1.2618 0 209 45
-17.3333 -29.8619 1.2618 0 209 45
-17.4895 -30.1744 1.4180 0 214 40
-17.0208 -30.1744 1.2618 0 209 45
-16.7083 -30.3306 1.1055 0 204 50
-16.8645 -29.8619 1.2618 0 209 45
-16.5520 -30.0181 1.1055 0 204 50
-16.5520 -29.8619 1.2618 0 209 45
-17.6458 -29.7056 1.4180 0 214 40
-17.3333 -29.7056 1.4180 0 214 40
-17.6458 -29.3931 1.4180 0 214 40
-17.4895 -29.2369 1.4180 0 214 40
-17.1770 -29.2369 1.4180 0 214 40
-16.5520 -29.7056 1.1055 0 204 50
-17.0208 -29.3931 1.2618 0 209 45
-16.7083 -29.3931 1.2618 0 209 45
-16.3958 -29.2369 1.1055 0 204 50
-16.0833 -29.2369 1.1055 0 204 50
-20.1458 -33.7681 2.3555 0 244 10
-19.8333 -33.9244 2.6680 0 255 0
-20.1458 -33.7681 2.8243 5 249 0
-19.8333 -33.6119 2.8243 5 249 0
-19.5208 -33.9244 2.6680 0 255 0
-19.9895 -33.2994 3.1368 15 239 0
-19.6770 -33.1431 3.1368 15 239 0
-19.5208 -33.2994 2.9805 10 244 0
-19.3645 -33.1431 2.9805 10 244 0
-18.8958 -34.0806 2.8243 5 249 0
-18.2708 -34.0806 2.6680 0 255 0
-18.2708 -33.9244 2.8243 5 249 0
-17.9583 -33.7681 2.6680 0 255 0
-17.9583 -33.7681 2.8243 5 249 0
-18.5833 -33.1431 3.1368 15 239 0
-19.5208 -31.7369 2.3555 0 244 10
-20.1458 -32.8306 3.2930 20 234 0
-19.3645 -32.8306 3.1368 15 239 0
-19.0520 -32.8306 2.9805 10 244 0
-19.5208 -32.3619 3.2930 20 234 0
-19.0520 -32.5181 3.2930 20 234 0
-19.2083 -32.3619 3.2930 20 234 0
-18.8958 -32.5181 3.1368 15 239 0
-18.5833 -32.6744 3.2930 20 234 0
-18.5833 -32.5181 3.4493 25 229 0
-18.8958 -31.8931 3.2930 20 234 0
-18.5833 -31.7369 3.4493 25 229 0
-18.2708 -32.2056 3.4493 25 229 0
-17.9583 -32.0494 3.4493 25 229 0
-18.4270 -33.7681 3.7618 35 219 0
-18.5833 -33.6119 3.7618 35 219 0
-18.2708 -34.0806 3.6055 30 224 0
-18.2708 -33.9244 3.7618 35 219 0
-18.1145 -33.7681 3.7618 35 219 0
-18.5833 -33.4556 3.7618 35 219 0
-18.1145 -33.4556 3.7618 35 219 0
-18.4270 -33.7681 4.5430 61 193 0
-18.5833 -33.6119 4.5430 61 193 0
-18.5833 -33.6119 4.6993 66 188 0
-18.1145 -34.0806 4.2305 50 204 0
-18.1145 -33.9244 4.3868 56 198 0
-18.1145 -34.0806 4.5430 61 193 0
-18.1145 -33.9244 4.6993 66 188 0
-18.8958 -33.4556 4.6993 66 188 0
-17.8020 -33.1431 4.3868 56 198 0
-17.8020 -32.9869 4.3868 56 198 0
-17.8020 -33.4556 4.5430 61 193 0
-17.9583 -33.2994 4.5430 61 193 0
-17.9583 -33.2994 4.6993 66 188 0
-18.1145 -32.9869 4.5430 61 193 0
-18.1145 -33.1431 4.6993 66 188 0
-19.6770 -32.6744 3.9180 40 214 0
-19.6770 -32.5181 3.9180 40 214 0
-19.5208 -32.8306 3.9180 40 214 0
-20.1458 -32.0494 3.6055 30 224 0
-19.8333 -31.7369 3.6055 30 224 0
-19.0520 -31.8931 4.6993 66 188 0
-19.2083 -31.7369 4.6993 66 188 0
-18.4270 -31.8931 3.6055 30 224 0
-18.4270 -32.6744 4.5430 61 193 0
-18.7395 -32.3619 4.6993 66 188 0
-18.4270 -32.3619 4.5430 61 193 0
-18.4270 -32.5181 4.6993 66 188 0
-17.9583 -32.6744 4.3868 56 198 0
-18.1145 -32.3619 4.3868 56 198 0
-17.9583 -32.5181 4.3868 56 198 0
-18.2708 -32.8306 4.5430 61 193 0
-18.2708 -32.8306 4.6993 66 188 0
-18.7395 -32.0494 4.5430 61 193 0
-18.8958 -32.2056 4.6993 66 188 0
-18.5833 -32.2056 4.5430 61 193 0
-18.7395 -31.7369 4.5430 61 193 0
-18.1145 -32.2056 4.3868 56 198 0
-18.2708 -31.8931 4.3868 56 198 0
-18.2708 -31.7369 4.3868 56 198 0
-17.1770 -34.0806 2.6680 0 255 0
-17.4895 -33.6119 2.8243 5 249 0
-17.0208 -33.9244 2.6680 0 255 0
-16.5520 -34.0806 2.6680 0 255 0
-17.6458 -33.4556 2.8243 5 249 0
-17.0208 -33.2994 2.8243 5 249 0
-16.5520 -32.9869 2.8243 5 249 0
-17.3333 -33.1431 2.9805 10 244 0
-15.9270 -33.7681 2.8243 5 249 0
-15.4583 -33.9244 2.6680 0 255 0
-15.3020 -33.9244 2.8243 5 249 0
-15.3020 -33.9244 3.4493 25 229 0
-15.3020 -33.7681 3.4493 25 229 0
-17.1770 -32.3619 3.1368 15 239 0
-16.8645 -32.8306 2.9805 10 244 0
-17.0208 -32.8306 3.1368 15 239 0
-16.8645 -32.6744 3.1368 15 239 0
-16.8645 -32.3619 3.1368 15 239 0
-17.6458 -32.0494 3.2930 20 234 0
-17.3333 -32.0494 3.2930 20 234 0
-17.1770 -32.0494 3.2930 20 234 0
-17.3333 -31.8931 3.4493 25 229 0
-16.5520 -32.0494 3.1368 15 239 0
-16.8645 -31.7369 3.2930 20 234 0
-17.0208 -31.7369 3.4493 25 229 0
-16.8645 -31.7369 3.4493 25 229 0
-16.7083 -31.7369 3.2930 20 234 0
-16.5520 -31.7369 3.4493 25 229 0
-15.9270 -32.6744 2.8243 5 249 0
-16.3958 -32.5181 2.9805 10 244 0
-15.6145 -32.6744 2.9805 10 244 0
-15.4583 -32.3619 3.1368 15 239 0
-16.3958 -32.0494 3.4493 25 229 0
-15.3020 -32.2056 3.1368 15 239 0
-15.4583 -31.7369 3.1368 15 239 0
-15.7708 -31.8931 3.2930 20 234 0
-16.5520 -34.0806 3.7618 35 219 0
-16.5520 -33.9244 3.7618 35 219 0
-16.7083 -33.9244 3.9180 40 214 0
-16.8645 -33.7681 3.9180 40 214 0
-16.8645 -33.6119 3.9180 40 214 0
-17.3333 -32.9869 3.7618 35 219 0
-17.1770 -32.9869 3.9180 40 214 0
-17.0208 -33.4556 3.9180 40 214 0
-17.0208 -33.1431 3.9180 40 214 0
-17.4895 -33.7681 4.3868 56 198 0
-17.6458 -33.4556 4.3868 56 198 0
-17.6458 -33.2994 4.3868 56 198 0
-17.1770 -33.2994 4.2305 50 204 0
-17.0208 -33.1431 4.2305 50 204 0
-16.0833 -33.9244 3.7618 35 219 0
-16.3958 -33.6119 3.7618 35 219 0
-16.0833 -33.7681 3.7618 35 219 0
-16.2395 -34.0806 4.0743 45 209 0
-16.0833 -33.6119 4.0743 45 209 0
-15.3020 -33.7681 3.6055 30 224 0
-15.3020 -33.6119 3.6055 30 224 0
-15.6145 -33.7681 4.0743 45 209 0
-16.3958 -33.4556 3.7618 35 219 0
-16.2395 -32.9869 3.9180 40 214 0
-15.3020 -33.2994 3.6055 30 224 0
-15.3020 -33.1431 3.6055 30 224 0
-15.3020 -32.9869 3.6055 30 224 0
-15.6145 -33.4556 4.2305 50 204 0
-15.6145 -33.2994 4.2305 50 204 0
-17.1770 -32.8306 3.7618 35 219 0
-17.1770 -32.8306 3.9180 40 214 0
-16.8645 -32.5181 3.9180 40 214 0
-17.3333 -32.0494 4.0743 45 209 0
-17.3333 -31.8931 4.0743 45 209 0
-17.3333 -31.7369 4.0743 45 209 0
-16.7083 -32.2056 3.9180 40 214 0
-16.5520 -31.8931 3.9180 40 214 0
-16.2395 -32.8306 3.9180 40 214 0
-16.2395 -32.6744 3.9180 40 214 0
-16.2395 -32.3619 3.9180 40 214 0
-15.4583 -32.8306 3.7618 35 219 0
-15.3020 -32.8306 3.7618 35 219 0
-15.3020 -32.5181 3.7618 35 219 0
-15.3020 -32.3619 3.7618 35 219 0
-16.2395 -32.2056 3.9180 40 214 0
-16.3958 -32.0494 4.0743 45 209 0
-16.3958 -31.8931 4.0743 45 209 0
-15.3020 -32.0494 3.7618 35 219 0
-19.9895 -31.5806 3.4493 25 229 0
-18.4270 -31.5806 3.4493 25 229 0
-18.1145 -31.4244 3.4493 25 229 0
-19.3645 -31.5806 3.6055 30 224 0
-19.3645 -31.4244 4.6993 66 188 0
-19.5208 -31.2681 4.6993 66 188 0
-19.5208 -31.1119 4.6993 66 188 0
-19.0520 -31.2681 4.6993 66 188 0
-19.6770 -30.7994 4.6993 66 188 0
-19.6770 -30.6431 4.6993 66 188 0
-19.0520 -30.9556 4.6993 66 188 0
-18.8958 -31.2681 3.7618 35 219 0
-18.4270 -30.9556 3.7618 35 219 0
-17.9583 -30.6431 3.7618 35 219 0
-18.8958 -31.5806 4.6993 66 188 0
-18.8958 -31.4244 4.6993 66 188 0
-18.4270 -30.7994 4.6993 66 188 0
-18.7395 -30.4869 4.6993 66 188 0
-18.4270 -30.6431 4.6993 66 188 0
-17.8020 -30.7994 4.5430 61 193 0
-17.8020 -30.4869 4.5430 61 193 0
-19.9895 -30.1744 4.0743 45 209 0
-17.8020 -30.3306 4.5430 61 193 0
-17.8020 -30.1744 4.5430 61 193 0
-17.9583 -29.8619 4.5430 61 193 0
-17.9583 -29.7056 4.6993 66 188 0
-16.8645 -31.5806 3.4493 25 229 0
-16.7083 -31.5806 3.4493 25 229 0
-16.2395 -31.5806 3.4493 25 229 0
-16.3958 -31.4244 3.4493 25 229 0
-16.5520 -30.9556 4.2305 50 204 0
-16.3958 -31.2681 3.6055 30 224 0
-16.2395 -31.5806 4.0743 45 209 0
-16.3958 -31.2681 4.0743 45 209 0
-16.0833 -31.2681 4.0743 45 209 0
-15.6145 -31.1119 3.6055 30 224 0
-15.9270 -30.7994 3.6055 30 224 0
-15.9270 -30.9556 4.0743 45 209 0
-15.7708 -30.9556 3.6055 30 224 0
-16.3958 -31.1119 4.2305 50 204 0
-16.3958 -30.6431 4.2305 50 204 0
-16.3958 -30.4869 4.2305 50 204 0
-17.4895 -30.3306 3.9180 40 214 0
-16.5520 -30.3306 3.9180 40 214 0
-16.8645 -30.0181 3.9180 40 214 0
-17.6458 -29.5494 4.2305 50 204 0
-16.7083 -29.2369 4.2305 50 204 0
-16.7083 -29.2369 4.6993 66 188 0
-15.4583 -30.0181 3.9180 40 214 0
-16.2395 -30.1744 4.2305 50 204 0
-16.2395 -30.0181 4.2305 50 204 0
-16.2395 -29.7056 4.3868 56 198 0
-30.4583 -27.9869 -2.9570 0 71 183
-30.4583 -26.7369 -2.9570 0 71 183
-34.8333 -28.9244 -0.3007 0 158 96
-34.8333 -28.7681 -0.3007 0 158 96
-34.5208 -29.0806 -0.6132 0 147 107
-34.3645 -28.9244 -0.6132 0 147 107
-34.3645 -28.7681 -0.6132 0 147 107
-34.3645 -28.6119 -0.6132 0 147 107
-34.3645 -28.4556 -0.6132 0 147 107
-34.5208 -28.2994 -0.6132 0 147 107
-34.5208 -28.1431 -0.4570 0 153 102
-32.8020 -29.0806 -0.9257 0 137 117
-32.8020 -28.7681 -0.9257 0 137 117
-32.8020 -28.6119 -0.9257 0 137 117
-32.9583 -28.4556 -0.9257 0 137 117
-32.9583 -28.2994 -0.9257 0 137 117
-32.8020 -28.1431 -0.9257 0 137 117
-32.9583 -27.9869 -0.9257 0 137 117
-33.8958 -29.0806 -0.6132 0 147 107
-33.8958 -28.9244 -0.6132 0 147 107
-33.4270 -28.9244 -0.7695 0 142 112
-33.4270 -28.7681 -0.7695 0 142 112
-33.4270 -28.6119 -0.7695 0 142 112
-33.2708 -29.0806 -0.7695 0 142 112
-33.7395 -28.4556 -0.6132 0 147 107
-33.7395 -28.2994 -0.6132 0 147 107
-33.4270 -28.4556 -0.6132 0 147 107
-33.4270 -28.2994 -0.6132 0 147 107
-33.4270 -28.1431 -0.6132 0 147 107
-33.4270 -27.9869 -0.6132 0 147 107
-33.7395 -28.1431 -0.4570 0 153 102
-33.7395 -27.9869 -0.4570 0 153 102
-34.5208 -27.8306 -0.4570 0 153 102
-34.3645 -27.5181 -0.4570 0 153 102
-34.3645 -27.3619 -0.4570 0 153 102
-34.3645 -27.2056 -0.4570 0 153 102
-34.3645 -27.0494 -0.4570 0 153 102
-34.3645 -26.8931 -0.4570 0 153 102
-34.3645 -26.7369 -0.4570 0 153 102
-32.9583 -27.8306 -0.9257 0 137 117
-33.5833 -27.8306 -0.6132 0 147 107
-33.4270 -27.6744 -0.6132 0 147 107
-33.4270 -27.5181 -0.6132 0 147 107
-33.4270 -27.3619 -0.6132 0 147 107
-33.7395 -27.8306 -0.4570 0 153 102
-33.7395 -27.6744 -0.4570 0 153 102
-33.8958 -27.5181 -0.4570 0 153 102
-33.8958 -27.3619 -0.4570 0 153 102
-32.9583 -27.6744 -0.7695 0 142 112
-32.9583 -27.5181 -0.7695 0 142 112
-32.9583 -27.3619 -0.7695 0 142 112
-33.5833 -27.2056 -0.6132 0 147 107
-33.5833 -27.0494 -0.6132 0 147 107
-33.4270 -26.7369 -0.6132 0 147 107
-33.8958 -27.2056 -0.4570 0 153 102
-33.8958 -27.0494 -0.4570 0 153 102
-33.8958 -26.7369 -0.4570 0 153 102
-33.8958 -26.7369 -0.3007 0 158 96
-32.9583 -27.2056 -0.7695 0 142 112
-32.9583 -27.0494 -0.7695 0 142 112
-32.9583 -26.8931 -0.7695 0 142 112
-31.7083 -28.2994 -2.6445 0 81 173
-31.2395 -29.0806 -1.5507 0 117 137
-31.2395 -28.9244 -1.5507 0 117 137
-31.2395 -28.7681 -1.5507 0 117 137
-30.6145 -28.9244 -1.7070 0 112 142
-30.6145 -28.7681 -1.7070 0 112 142
-31.2395 -28.4556 -1.5507 0 117 137
-31.2395 -28.2994 -1.5507 0 117 137
-31.2395 -27.9869 -1.5507 0 117 137
-30.6145 -28.4556 -1.7070 0 112 142
-30.6145 -28.1431 -1.7070 0 112 142
-31.5520 -27.0494 -2.6445 0 81 173
-31.0833 -27.6744 -1.5507 0 117 137
-30.4583 -27.8306 -1.7070 0 112 142
-31.0833 -27.2056 -1.5507 0 117 137
-30.9270 -26.7369 -1.5507 0 117 137
-32.3333 -29.0806 -1.2382 0 127 127
-32.3333 -28.9244 -1.2382 0 127 127
-32.3333 -28.6119 -1.2382 0 127 127
-31.8645 -28.9244 -1.2382 0 127 127
-31.8645 -28.7681 -1.2382 0 127 127
-31.8645 -28.6119 -1.2382 0 127 127
-32.3333 -28.4556 -1.2382 0 127 127
-32.3333 -28.2994 -1.0820 0 132 122
-32.3333 -28.1431 -1.0820 0 132 122
-32.3333 -27.9869 -1.0820 0 132 122
-31.8645 -28.4556 -1.2382 0 127 127
-31.8645 -28.2994 -1.2382 0 127 127
-31.8645 -27.9869 -1.2382 0 127 127
-32.3333 -27.8306 -1.0820 0 132 122
-32.3333 -27.5181 -1.0820 0 132 122
-31.7083 -27.6744 -1.2382 0 127 127
-31.7083 -27.3619 -1.2382 0 127 127
-32.3333 -27.2056 -1.0820 0 132 122
-32.1770 -27.0494 -1.0820 0 132 122
-32.1770 -26.8931 -1.0820 0 132 122
-31.7083 -27.2056 -1.2382 0 127 127
-31.7083 -26.8931 -1.2382 0 127 127
-34.3645 -26.5806 -0.3007 0 158 96
-34.3645 -26.4244 -0.3007 0 158 96
-34.3645 -26.2681 -0.3007 0 158 96
-34.3645 -26.1119 -0.3007 0 158 96
-34.5208 -25.9556 -0.3007 0 158 96
-34.5208 -25.7994 -0.3007 0 158 96
-34.3645 -25.6431 -0.3007 0 158 96
-34.3645 -25.4869 -0.3007 0 158 96
-33.8958 -26.5806 -0.3007 0 158 96
-33.4270 -26.5806 -0.4570 0 153 102
-33.5833 -26.4244 -0.4570 0 153 102
-33.8958 -26.2681 -0.3007 0 158 96
-33.8958 -26.1119 -0.3007 0 158 96
-33.5833 -26.2681 -0.4570 0 153 102
-33.5833 -26.1119 -0.4570 0 153 102
-32.9583 -26.5806 -0.7695 0 142 112
-32.9583 -26.4244 -0.7695 0 142 112
-33.8958 -25.9556 -0.3007 0 158 96
-33.8958 -25.7994 -0.3007 0 158 96
-34.5208 -25.3306 -0.3007 0 158 96
-34.5208 -25.1744 -0.3007 0 158 96
-34.0520 -24.7056 -0.3007 0 158 96
-34.0520 -24.5494 -0.3007 0 158 96
-33.5833 -25.1744 -0.3007 0 158 96
-33.5833 -25.0181 -0.3007 0 158 96
-33.5833 -24.8619 -0.3007 0 158 96
-33.1145 -25.3306 -0.4570 0 153 102
-33.1145 -25.1744 -0.4570 0 153 102
-32.9583 -24.8619 -0.4570 0 153 102
-33.5833 -24.5494 -0.3007 0 158 96
-33.5833 -24.3931 -0.3007 0 158 96
-32.9583 -24.7056 -0.4570 0 153 102
-32.9583 -24.3931 -0.4570 0 153 102
-32.6458 -26.1119 -2.6445 0 81 173
-32.1770 -26.5806 -1.0820 0 132 122
-31.7083 -26.5806 -1.2382 0 127 127
-32.3333 -25.4869 -0.7695 0 142 112
-30.7708 -26.2681 -1.3945 0 122 132
-30.6145 -25.7994 -1.3945 0 122 132
-31.5520 -25.3306 -1.0820 0 132 122
-32.3333 -25.1744 -0.7695 0 142 112
-32.3333 -24.8619 -0.7695 0 142 112
-32.1770 -24.5494 -0.7695 0 142 112
-31.3958 -24.8619 -1.0820 0 132 122
-31.2395 -24.3931 -1.0820 0 132 122
-29.2083 -27.9869 -3.2695 0 61 193
-28.1145 -28.7681 -3.2695 0 61 193
-27.9583 -27.3619 -3.2695 0 61 193
-26.8645 -28.6119 -3.4257 0 56 198
-26.3958 -28.9244 -3.5820 0 51 204
-26.0833 -27.6744 -3.4257 0 56 198
-29.8333 -29.0806 -2.1757 0 96 158
-29.6770 -28.7681 -2.1757 0 96 158
-29.0520 -29.0806 -2.1757 0 96 158
-29.5208 -28.2994 -2.0195 0 102 153
-28.1145 -29.0806 -2.4882 0 86 168
-28.5833 -28.2994 -2.1757 0 96 158
-29.5208 -27.8306 -2.0195 0 102 153
-29.3645 -27.3619 -2.0195 0 102 153
-30.1458 -26.8931 -1.7070 0 112 142
-26.5520 -28.4556 -2.6445 0 81 173
-25.3020 -27.6744 -0.3007 0 158 96
-29.6770 -25.9556 -1.7070 0 112 142
-33.4270 -24.0806 -0.3007 0 158 96
-33.4270 -23.9244 -0.3007 0 158 96
-32.9583 -24.0806 -0.4570 0 153 102
-32.9583 -23.7681 -0.4570 0 153 102
-32.0208 -24.0806 -0.7695 0 142 112
-31.8645 -23.6119 -0.6132 0 147 107
-32.6458 -23.2994 -0.4570 0 153 102
-31.7083 -22.9869 -0.6132 0 147 107
-30.7708 -23.6119 -1.0820 0 132 122
-32.4895 -22.8306 -0.4570 0 153 102
-32.3333 -22.2056 -0.4570 0 153 102
-31.8645 -21.1119 -0.4570 0 153 102
-29.9895 -23.7681 -1.2382 0 127 127
-34.8333 -28.6119 -0.1445 0 163 91
-34.8333 -28.4556 -0.1445 0 163 91
-34.8333 -28.2994 -0.1445 0 163 91
-35.1458 -27.9869 0.0118 0 168 86
-34.6770 -28.1431 -0.1445 0 163 91
-34.6770 -27.9869 -0.1445 0 163 91
-35.1458 -27.8306 0.0118 0 168 86
-35.1458 -27.6744 0.0118 0 168 86
-34.8333 -27.8306 -0.1445 0 163 91
-34.6770 -27.8306 -0.1445 0 163 91
-34.8333 -27.6744 -0.1445 0 163 91
-34.8333 -27.5181 -0.1445 0 163 91
-34.8333 -27.3619 -0.1445 0 163 91
-35.1458 -27.5181 0.1680 0 173 81
-35.1458 -27.3619 0.1680 0 173 81
-34.8333 -27.2056 0.0118 0 168 86
-34.6770 -26.8931 0.0118 0 168 86
-34.6770 -26.7369 0.0118 0 168 86
-35.1458 -27.2056 0.1680 0 173 81
-34.9895 -27.2056 0.1680 0 173 81
-34.9895 -27.0494 0.1680 0 173 81
-35.1458 -26.8931 0.1680 0 173 81
-35.1458 -26.7369 0.1680 0 173 81
-33.1145 -29.0806 1.7305 0 224 30
-32.8020 -28.9244 1.7305 0 224 30
-32.8020 -28.6119 1.7305 0 224 30
-33.2708 -29.0806 2.1993 0 239 15
-33.2708 -28.9244 2.1993 0 239 15
-32.9583 -29.0806 2.0430 0 234 20
-32.8020 -28.9244 2.1993 0 239 15
-33.1145 -28.7681 2.1993 0 239 15
-33.2708 -28.6119 2.1993 0 239 15
-33.1145 -28.6119 2.1993 0 239 15
-32.8020 -28.2994 1.8868 0 229 25
-32.8020 -28.1431 1.8868 0 229 25
-32.8020 -27.9869 1.8868 0 229 25
-33.1145 -28.4556 2.1993 0 239 15
-33.1145 -28.2994 2.1993 0 239 15
-32.8020 -28.4556 2.1993 0 239 15
-32.9583 -28.2994 2.1993 0 239 15
-32.8020 -28.2994 2.1993 0 239 15
-33.1145 -28.1431 2.1993 0 239 15
-32.9583 -28.1431 2.1993 0 239 15
-32.9583 -27.9869 2.1993 0 239 15
-32.8020 -27.8306 1.8868 0 229 25
-32.8020 -27.6744 1.8868 0 229 25
-32.8020 -27.5181 1.8868 0 229 25
-32.8020 -27.3619 1.8868 0 229 25
-32.8020 -27.2056 1.8868 0 229 25
-32.8020 -27.0494 1.8868 0 229 25
-32.8020 -26.8931 1.8868 0 229 25
-32.8020 -26.7369 1.8868 0 229 25
-32.8020 -27.2056 2.1993 0 239 15
-32.8020 -27.0494 2.1993 0 239 15
-32.8020 -26.8931 2.1993 0 239 15
-30.9270 -29.0806 0.9493 0 198 56
-30.3020 -29.0806 0.7930 0 193 61
-32.1770 -28.7681 1.2618 0 209 45
-32.4895 -29.0806 1.5743 0 219 35
-32.4895 -28.9244 1.5743 0 219 35
-32.3333 -29.0806 1.4180 0 214 40
-32.3333 -28.9244 1.4180 0 214 40
-32.4895 -28.7681 1.4180 0 214 40
-32.4895 -28.6119 1.4180 0 214 40
-32.4895 -28.7681 1.5743 0 219 35
-32.4895 -28.6119 1.5743 0 219 35
-32.0208 -29.0806 1.2618 0 209 45
-32.0208 -28.9244 1.2618 0 209 45
-31.7083 -29.0806 1.1055 0 204 50
-31.7083 -28.9244 1.2618 0 209 45
-32.0208 -28.6119 1.2618 0 209 45
-32.4895 -28.4556 1.4180 0 214 40
-32.4895 -28.4556 1.5743 0 219 35
-32.4895 -28.2994 1.5743 0 219 35
-32.3333 -28.2994 1.4180 0 214 40
-32.3333 -28.1431 1.4180 0 214 40
-32.0208 -28.4556 1.2618 0 209 45
-32.0208 -28.2994 1.2618 0 209 45
-31.7083 -28.1431 1.2618 0 209 45
-31.7083 -27.9869 1.2618 0 209 45
-32.6458 -28.9244 1.7305 0 224 30
-32.6458 -28.7681 1.7305 0 224 30
-32.6458 -28.6119 1.7305 0 224 30
-32.3333 -29.0806 2.1993 0 239 15
-32.1770 -29.0806 2.1993 0 239 15
-32.3333 -28.9244 2.1993 0 239 15
-32.6458 -28.7681 2.0430 0 234 20
-32.4895 -28.7681 2.1993 0 239 15
-32.4895 -28.6119 2.1993 0 239 15
-32.3333 -28.7681 2.1993 0 239 15
-32.0208 -29.0806 1.7305 0 224 30
-32.0208 -28.9244 1.7305 0 224 30
-31.8645 -28.6119 1.7305 0 224 30
-31.7083 -29.0806 2.1993 0 239 15
-31.8645 -28.6119 2.1993 0 239 15
-32.6458 -28.4556 1.7305 0 224 30
-32.6458 -28.2994 1.7305 0 224 30
-32.6458 -28.1431 1.7305 0 224 30
-32.6458 -27.9869 1.7305 0 224 30
-32.6458 -28.4556 2.0430 0 234 20
-32.6458 -28.4556 2.1993 0 239 15
-32.6458 -28.2994 2.1993 0 239 15
-32.3333 -28.4556 2.0430 0 234 20
-32.4895 -28.1431 2.1993 0 239 15
-32.6458 -27.9869 2.1993 0 239 15
-31.7083 -28.4556 1.7305 0 224 30
-31.5520 -28.2994 1.7305 0 224 30
-31.5520 -28.4556 2.1993 0 239 15
-32.0208 -28.1431 2.1993 0 239 15
-31.3958 -28.9244 1.1055 0 204 50
-30.9270 -28.9244 1.1055 0 204 50
-31.3958 -28.7681 1.2618 0 209 45
-31.3958 -28.6119 1.2618 0 209 45
-30.9270 -28.7681 1.1055 0 204 50
-30.9270 -28.6119 1.1055 0 204 50
-30.4583 -29.0806 1.2618 0 209 45
-30.7708 -28.6119 1.1055 0 204 50
-30.3020 -28.7681 1.2618 0 209 45
-30.4583 -28.7681 1.4180 0 214 40
-31.3958 -28.4556 1.2618 0 209 45
-31.2395 -28.2994 1.2618 0 209 45
-31.3958 -28.1431 1.2618 0 209 45
-31.2395 -27.9869 1.2618 0 209 45
-30.7708 -28.4556 1.1055 0 204 50
-30.7708 -28.2994 1.1055 0 204 50
-30.7708 -28.1431 1.1055 0 204 50
-30.4583 -27.9869 1.1055 0 204 50
-30.3020 -28.1431 1.4180 0 214 40
-31.3958 -27.9869 1.7305 0 224 30
-30.7708 -28.2994 2.1993 0 239 15
-32.3333 -27.6744 1.5743 0 219 35
-32.3333 -27.5181 1.5743 0 219 35
-31.7083 -27.8306 1.2618 0 209 45
-31.7083 -27.6744 1.2618 0 209 45
-32.0208 -27.3619 1.5743 0 219 35
-31.5520 -27.5181 1.4180 0 214 40
-31.7083 -27.3619 1.4180 0 214 40
-32.0208 -27.2056 1.5743 0 219 35
-32.0208 -27.0494 1.5743 0 219 35
-31.5520 -27.2056 1.4180 0 214 40
-31.7083 -27.0494 1.4180 0 214 40
-32.0208 -26.8931 1.5743 0 219 35
-32.0208 -26.7369 1.5743 0 219 35
-31.5520 -26.8931 1.4180 0 214 40
-31.5520 -26.7369 1.4180 0 214 40
-32.6458 -27.8306 1.7305 0 224 30
-32.4895 -27.8306 1.7305 0 224 30
-32.4895 -27.6744 1.7305 0 224 30
-32.6458 -27.6744 1.8868 0 229 25
-32.4895 -27.5181 1.7305 0 224 30
-32.4895 -27.3619 1.7305 0 224 30
-32.6458 -27.5181 1.8868 0 229 25
-32.6458 -27.8306 2.1993 0 239 15
-32.4895 -27.8306 2.1993 0 239 15
-32.6458 -27.6744 2.1993 0 239 15
-32.6458 -27.5181 2.1993 0 239 15
-32.6458 -27.3619 2.1993 0 239 15
-32.4895 -27.3619 2.1993 0 239 15
-32.4895 -27.2056 1.7305 0 224 30
-32.4895 -27.0494 1.7305 0 224 30
-32.4895 -26.8931 1.7305 0 224 30
-32.4895 -26.7369 1.7305 0 224 30
-32.6458 -26.8931 1.8868 0 229 25
-32.6458 -26.7369 1.8868 0 229 25
-32.1770 -26.7369 1.7305 0 224 30
-32.4895 -27.2056 2.1993 0 239 15
-32.6458 -27.0494 2.1993 0 239 15
-32.3333 -27.0494 2.1993 0 239 15
-32.6458 -26.8931 2.1993 0 239 15
-32.3333 -26.8931 2.1993 0 239 15
-32.3333 -26.7369 2.1993 0 239 15
-31.2395 -27.8306 1.2618 0 209 45
-31.2395 -27.6744 1.2618 0 209 45
-31.2395 -27.6744 1.4180 0 214 40
-31.2395 -27.5181 1.4180 0 214 40
-31.2395 -27.3619 1.4180 0 214 40
-30.4583 -27.8306 1.1055 0 204 50
-30.4583 -27.6744 1.1055 0 204 50
-30.4583 -27.6744 1.2618 0 209 45
-30.4583 -27.5181 1.2618 0 209 45
-30.4583 -27.3619 1.2618 0 209 45
-30.9270 -27.2056 1.4180 0 214 40
-30.9270 -27.0494 1.4180 0 214 40
-30.9270 -26.8931 1.4180 0 214 40
-30.9270 -26.7369 1.4180 0 214 40
-30.4583 -27.2056 1.2618 0 209 45
-30.4583 -27.0494 1.2618 0 209 45
-31.2395 -27.8306 1.7305 0 224 30
-31.2395 -27.5181 1.7305 0 224 30
-31.0833 -27.3619 1.7305 0 224 30
